ncols         151
nrows         142
xllcorner     714418.525492
yllcorner     9112796.79321
cellsize      1342
NODATA_value  -9999
-9999 43 28 35 33 27 27 33 39 35 36 31 34 28 29 30 29 26 18 15 23 18 18 15 15 14 11 15 14 16 15 12 10 16 13 20 18 14 13 10 11 14 9 10 12 11 13 23 12 10 13 13 15 12 11 13 10 8 7 7 6 8 7 8 3 4 7 6 6 9 5 8 6 6 9 7 8 8 7 8 7 9 5 5 5 4 8 2 3 -9999 -9999 -9999 -9999 -9999 -9999 -9999 -9999 -9999 -9999 -9999 -9999 -9999 -9999 -2 6 4 3 0 3 1 1 0 3 -1 4 1 1 -1 -2 -9999 -9999 -9999 -9999 -9999 -9999 -9999 -9999 -9999 -9999 -9999 -9999 -9999 -9999 -9999 -9999 -9999 -9999 -9999 -9999 -9999 -9999 -9999 -9999 -9999 -9999 -9999 -9999 -9999 -9999 -9999 -9999
-9999 48 43 42 44 38 35 44 36 40 34 42 36 43 25 40 33 22 18 17 18 21 15 15 15 13 13 15 16 17 16 19 11 13 12 13 12 14 13 18 11 13 15 11 13 15 12 19 17 14 14 14 12 13 17 14 12 10 10 11 9 8 8 6 6 5 5 8 6 8 8 6 7 12 11 7 10 9 8 8 7 7 10 9 9 13 6 8 4 2 3 0 -9999 -9999 -9999 -9999 -9999 -9999 -9999 -9999 -9999 1 0 4 3 3 -1 2 2 0 1 -1 0 4 2 1 4 -1 -9999 -9999 -9999 -9999 -9999 -9999 -9999 -9999 -9999 -9999 -9999 -9999 -9999 -9999 -9999 -9999 -9999 -9999 -9999 -9999 -9999 -9999 -9999 -9999 -9999 -9999 -9999 -9999 -9999 -9999 -9999 -9999 -9999
-9999 43 47 51 48 41 31 34 42 40 43 35 43 46 52 49 37 28 31 32 25 20 19 18 18 16 18 16 13 13 14 12 19 16 20 17 21 17 14 16 10 15 12 16 19 17 16 19 18 17 18 18 20 17 16 16 13 12 12 11 8 13 9 11 8 8 11 9 9 8 8 11 6 9 9 12 12 14 10 13 9 11 10 10 7 8 8 6 4 2 2 2 2 3 -9999 -9999 -9999 -9999 -9999 -9999 1 0 -1 5 3 -1 1 -2 1 2 1 1 -2 4 3 1 3 2 2 -9999 -9999 -9999 -9999 -9999 -9999 -9999 -9999 -9999 -9999 -9999 -9999 -9999 -9999 -9999 -9999 -9999 -9999 -9999 -9999 -9999 -9999 -9999 -9999 -9999 -9999 -9999 -9999 -9999 -9999 -9999 -9999
-9999 41 57 51 49 34 40 40 44 35 46 38 49 26 44 50 33 30 34 36 24 23 22 14 20 19 19 20 20 16 17 18 17 17 20 17 21 20 19 17 15 20 13 20 15 19 17 20 19 23 20 21 20 17 19 16 14 14 11 14 15 8 7 9 7 10 11 10 12 9 9 8 8 10 10 9 13 16 10 11 10 8 14 10 10 11 10 7 6 3 1 3 1 2 2 2 4 0 2 1 1 0 1 2 3 2 0 1 0 2 5 1 0 2 6 4 1 1 2 -9999 -9999 -9999 -9999 -9999 -9999 -9999 -9999 -9999 -9999 -9999 -9999 -9999 -9999 -9999 -9999 -9999 -9999 -9999 -9999 -9999 -9999 -9999 -9999 -9999 -9999 -9999 -9999 -9999 -9999 -9999 -9999
-9999 59 42 63 50 56 47 51 43 52 44 31 52 54 42 59 30 51 52 44 40 48 30 24 27 29 38 39 39 41 18 14 19 18 21 27 23 21 21 20 17 18 18 22 16 17 20 28 23 24 23 23 23 24 19 19 18 15 16 15 13 10 9 10 13 13 10 12 11 9 10 13 9 13 10 11 15 15 10 10 10 9 11 11 12 10 9 7 6 4 5 2 1 3 2 2 2 0 3 2 0 3 -1 2 0 1 0 5 0 10 5 1 0 0 1 -2 4 1 2 2 -9999 -9999 -9999 -9999 -9999 -9999 -9999 -9999 -9999 -9999 -9999 -9999 -9999 -9999 -9999 -9999 -9999 -9999 -9999 -9999 -9999 -9999 -9999 -9999 -9999 -9999 -9999 -9999 -9999 -9999 -9999
-9999 67 48 60 51 46 57 51 50 41 46 51 45 51 51 62 54 45 44 47 48 30 22 24 30 42 50 39 47 36 29 24 18 21 26 26 26 23 25 19 23 27 22 18 25 22 21 24 24 29 26 25 25 25 19 20 17 18 18 15 12 10 14 7 6 17 11 15 14 13 14 19 11 15 11 12 12 17 11 12 13 11 13 16 12 14 12 13 8 6 1 2 4 1 1 1 3 3 1 1 0 0 2 -2 0 1 0 4 1 0 -1 4 6 1 1 4 2 1 8 7 -9999 -9999 -9999 -9999 -9999 -9999 -9999 -9999 -9999 -9999 -9999 -9999 -9999 -9999 -9999 -9999 -9999 -9999 -9999 -9999 -9999 -9999 -9999 -9999 -9999 -9999 -9999 -9999 -9999 -9999 -9999
-9999 62 52 66 57 55 52 58 53 49 35 51 53 54 59 45 54 42 74 66 26 46 20 25 52 77 91 56 54 46 34 37 25 23 23 25 34 32 23 23 26 29 26 29 22 24 26 26 31 32 24 27 29 27 23 20 19 16 15 12 18 13 11 9 6 13 13 20 15 15 17 13 12 13 14 13 16 15 15 17 16 14 15 14 14 11 12 10 8 6 5 4 4 2 2 1 1 1 0 -2 4 -3 1 0 1 0 1 3 -1 0 1 2 6 9 7 1 5 0 1 10 5 -9999 -9999 -9999 -9999 -9999 -9999 -9999 -9999 -9999 -9999 -9999 -9999 -9999 -9999 -9999 -9999 -9999 -9999 -9999 -9999 -9999 -9999 -9999 -9999 -9999 -9999 -9999 -9999 -9999 -9999
-9999 47 72 62 69 54 62 58 57 57 42 48 53 53 52 40 53 50 42 29 26 22 23 29 62 50 64 80 65 39 51 42 32 29 15 17 35 36 33 27 26 30 30 34 24 27 30 29 33 34 31 31 29 27 24 20 18 16 16 19 18 14 16 5 18 21 13 19 18 22 18 14 14 14 16 15 15 19 15 16 19 19 17 12 14 12 11 9 13 7 8 3 7 4 2 3 4 2 3 4 1 2 -1 0 1 1 1 1 2 -1 2 3 5 10 6 1 4 2 4 2 4 2 -9999 -9999 -9999 -9999 -9999 -9999 -9999 -9999 -9999 -9999 -9999 -9999 -9999 -9999 -9999 -9999 -9999 -9999 -9999 -9999 -9999 -9999 -9999 -9999 -9999 -9999 -9999 -9999 -9999
-9999 54 81 70 68 70 72 63 65 63 59 61 58 49 48 50 55 38 27 24 39 31 25 27 37 76 71 82 39 76 64 55 38 24 22 24 40 52 43 48 33 35 34 42 31 35 30 34 36 38 30 31 29 28 24 24 22 19 17 20 21 21 21 15 19 21 19 24 27 20 20 15 18 19 14 17 16 17 19 18 18 21 20 19 14 11 12 9 9 8 7 5 6 3 3 3 4 5 4 5 6 2 3 3 4 2 1 2 3 4 3 6 8 4 2 2 2 3 5 4 3 4 -9999 -9999 -9999 -9999 -9999 -9999 -9999 -9999 -9999 -9999 -9999 -9999 -9999 -9999 -9999 -9999 -9999 -9999 -9999 -9999 -9999 -9999 -9999 -9999 -9999 -9999 -9999 -9999 -9999
-9999 73 73 78 72 78 71 57 63 62 57 58 55 52 48 47 50 35 26 28 39 37 62 29 47 70 88 56 80 100 92 68 44 32 24 22 23 22 56 56 72 50 44 51 55 51 41 37 38 35 33 31 30 28 26 26 24 24 27 20 22 29 30 19 22 22 31 25 25 25 27 18 18 18 17 20 18 18 21 19 19 17 16 17 16 14 12 11 11 10 6 10 8 8 3 6 6 5 4 2 4 4 2 3 3 2 1 3 4 5 6 2 8 3 2 2 4 2 3 4 2 4 4 -9999 -9999 -9999 -9999 -9999 -9999 -9999 -9999 -9999 -9999 -9999 -9999 -9999 -9999 -9999 -9999 -9999 -9999 -9999 -9999 -9999 -9999 -9999 -9999 -9999 -9999 -9999 -9999
-9999 87 85 82 69 63 72 61 60 57 60 59 53 44 36 34 31 28 45 51 38 33 30 28 31 49 59 72 54 115 84 75 43 40 48 32 28 24 57 59 77 69 58 50 58 48 39 43 39 35 36 34 31 30 26 31 27 26 27 27 21 31 27 26 25 31 30 28 25 26 28 22 17 18 18 18 20 21 23 23 20 18 17 17 13 15 14 16 14 10 13 10 9 10 11 6 8 7 5 7 4 5 4 2 0 1 9 3 8 4 8 11 7 3 4 5 4 2 6 5 5 2 3 4 -9999 -9999 -9999 -9999 -9999 -9999 -9999 -9999 -9999 -9999 -9999 -9999 -9999 -9999 -9999 -9999 -9999 -9999 -9999 -9999 -9999 -9999 -9999 -9999 -9999 -9999 -9999
-9999 94 78 87 83 68 68 69 60 61 61 66 43 42 36 34 30 31 62 53 44 61 44 53 64 68 82 80 74 85 98 62 52 63 55 51 24 26 46 58 74 81 60 63 66 64 52 56 42 44 47 36 34 46 34 38 33 28 35 41 27 42 30 34 39 42 41 35 31 25 31 22 24 26 22 20 19 19 22 23 21 20 18 19 16 18 18 15 17 11 10 9 18 6 10 12 9 9 6 7 6 4 5 2 3 1 2 4 5 10 6 11 9 4 6 5 4 5 10 4 6 4 7 4 5 -9999 -9999 -9999 -9999 -9999 -9999 -9999 -9999 -9999 -9999 -9999 -9999 -9999 -9999 -9999 -9999 -9999 -9999 -9999 -9999 -9999 -9999 -9999 -9999 -9999 -9999
-9999 96 82 81 77 76 67 59 63 61 57 67 60 67 38 47 31 46 59 39 62 73 32 79 93 103 159 86 96 84 100 67 58 53 47 63 52 36 42 45 58 94 65 72 79 61 53 60 45 45 40 39 42 40 43 33 34 36 53 48 47 38 46 44 37 42 43 35 33 30 30 29 30 20 32 20 21 20 24 23 23 25 21 18 21 20 17 17 15 15 13 16 13 15 13 13 11 7 9 6 4 7 5 6 4 3 3 4 7 5 5 8 14 6 6 7 6 7 5 10 6 3 8 10 4 4 -9999 -9999 -9999 -9999 -9999 -9999 -9999 -9999 -9999 -9999 -9999 -9999 -9999 -9999 -9999 -9999 -9999 -9999 -9999 -9999 -9999 -9999 -9999 -9999 -9999
-9999 92 88 85 78 76 71 69 69 98 79 75 78 86 53 49 47 54 72 72 50 27 60 54 40 59 75 132 175 209 215 91 98 54 63 43 35 48 58 70 61 73 77 77 76 51 83 71 66 53 55 55 53 51 44 45 53 60 55 71 55 66 54 47 44 53 42 43 33 39 41 29 26 26 25 22 24 21 27 25 25 28 20 19 21 20 21 17 19 18 11 13 14 13 14 11 12 10 10 8 7 9 7 7 5 5 5 5 5 5 6 9 16 10 6 15 12 14 6 12 8 5 7 2 3 2 4 -9999 -9999 -9999 -9999 -9999 -9999 -9999 -9999 -9999 -9999 -9999 -9999 -9999 -9999 -9999 -9999 -9999 -9999 -9999 -9999 -9999 -9999 -9999 -9999
-9999 152 110 92 82 112 80 96 74 121 114 93 93 62 61 42 58 63 63 64 51 48 30 59 65 50 67 61 92 110 123 71 60 94 42 32 57 70 42 58 91 90 105 95 69 51 99 63 64 61 50 55 55 53 46 56 50 67 66 63 75 74 60 49 60 45 50 48 40 42 39 35 34 32 30 27 26 22 29 25 27 25 22 27 22 22 21 22 21 18 21 18 17 20 15 18 14 13 13 10 9 14 10 8 7 5 6 6 5 7 6 9 11 8 10 11 10 7 9 7 8 9 3 4 3 4 5 3 -9999 -9999 -9999 -9999 -9999 -9999 -9999 -9999 -9999 -9999 -9999 -9999 -9999 -9999 -9999 -9999 -9999 -9999 -9999 -9999 -9999 -9999 -9999
-9999 318 250 207 147 101 182 124 179 152 116 105 145 93 57 65 68 66 42 37 48 68 60 61 76 59 71 73 59 94 92 178 207 227 53 45 30 37 56 74 79 92 103 91 81 64 90 64 56 67 74 51 61 58 59 63 54 86 97 73 87 61 52 62 64 54 44 47 48 43 39 37 37 35 27 27 28 26 29 31 28 28 27 30 23 25 23 24 21 20 25 19 19 18 15 17 14 14 16 18 15 13 10 8 4 7 4 7 9 11 11 9 9 8 14 16 13 8 12 6 12 8 5 7 3 4 5 3 1 2 1 -9999 -9999 -9999 -9999 -9999 -9999 -9999 -9999 -9999 -9999 -9999 -9999 -9999 -9999 -9999 -9999 -9999 -9999 -9999 -9999
-9999 353 341 360 189 128 211 208 190 149 128 120 190 125 77 70 64 58 41 44 44 74 80 68 69 78 67 69 64 87 99 103 136 222 244 62 45 28 77 63 62 91 83 84 86 79 76 61 50 54 59 63 65 63 68 54 74 70 100 75 93 95 82 87 80 62 64 57 53 46 44 47 43 43 40 38 41 35 29 43 29 37 29 26 27 29 31 30 20 27 29 25 22 21 20 17 17 19 21 16 12 12 10 8 10 8 11 8 7 9 9 9 9 9 9 10 12 11 10 8 10 7 8 6 6 4 3 3 3 2 0 2 2 -9999 -9999 -9999 -9999 -9999 -9999 -9999 -9999 -9999 -9999 -9999 -9999 -9999 -9999 -9999 -9999 -9999 -9999
-9999 423 386 526 387 293 270 208 179 147 175 262 250 166 107 102 57 63 46 68 57 93 105 92 102 165 269 100 115 286 203 101 101 101 101 104 148 39 46 33 76 66 101 110 62 70 61 58 52 58 59 72 74 54 61 77 107 84 118 98 105 103 93 94 60 69 65 63 59 47 50 54 45 46 41 39 34 30 28 43 30 38 27 26 35 29 38 25 34 30 28 25 24 23 21 20 19 19 27 25 16 19 10 8 10 8 12 9 7 13 10 10 13 11 12 12 9 18 9 10 9 8 10 10 5 6 4 2 4 2 2 1 4 -9999 -9999 -9999 -9999 -9999 -9999 -9999 -9999 -9999 -9999 -9999 -9999 -9999 -9999 -9999 -9999 -9999 -9999
-9999 465 509 592 401 257 236 198 209 183 276 273 265 129 133 120 63 78 70 81 88 70 84 114 125 225 218 134 226 173 428 120 101 101 101 101 140 55 69 47 81 88 95 100 69 71 67 75 82 106 103 74 67 108 78 105 70 89 104 109 106 107 98 74 91 71 80 71 68 62 64 59 54 50 42 35 34 31 42 35 32 39 32 37 32 35 33 28 32 31 32 26 29 36 27 29 23 19 16 26 13 22 17 13 9 20 10 13 9 11 11 12 8 11 22 16 11 15 9 10 9 7 8 9 5 6 9 4 1 0 3 7 2 -9999 -9999 -9999 -9999 -9999 -9999 -9999 -9999 -9999 -9999 -9999 -9999 -9999 -9999 -9999 -9999 -9999 -9999
-9999 238 264 452 515 286 254 242 291 398 346 334 256 236 194 179 85 83 107 117 322 182 114 179 151 309 412 593 307 100 101 101 101 101 101 101 101 101 98 119 79 90 103 82 86 94 104 89 138 96 119 56 64 115 96 107 76 92 107 113 114 106 92 92 92 86 83 76 80 68 62 62 61 51 51 36 39 33 42 39 49 37 32 34 48 54 34 33 37 32 32 31 34 39 32 28 23 29 26 18 23 24 19 21 13 19 16 19 11 12 12 13 12 13 12 11 11 16 9 13 16 8 5 8 4 5 10 3 3 5 3 3 4 -9999 -9999 -9999 -9999 -9999 -9999 -9999 -9999 -9999 -9999 -9999 -9999 -9999 -9999 -9999 -9999 -9999 -9999
-9999 275 301 497 481 273 240 211 480 422 409 273 311 296 169 87 104 84 111 170 319 253 267 338 271 388 519 448 166 101 101 101 105 101 101 101 101 101 103 94 66 83 89 89 92 100 141 203 212 136 90 61 74 178 163 182 123 125 122 106 84 101 112 121 100 97 87 85 80 76 82 66 61 57 49 44 40 50 46 32 54 47 44 59 42 42 41 41 35 39 34 37 35 36 30 27 24 30 26 21 24 28 17 29 30 28 18 20 14 14 9 14 12 12 14 15 13 12 12 9 15 5 6 9 3 6 4 5 5 4 3 3 2 -9999 -9999 -9999 -9999 -9999 -9999 -9999 -9999 -9999 -9999 -9999 -9999 -9999 -9999 -9999 -9999 -9999 -9999
-9999 354 315 415 365 286 392 330 505 488 351 347 365 334 246 207 100 78 218 395 247 419 421 366 210 408 672 385 178 101 101 101 171 214 101 101 101 101 135 104 80 80 84 96 110 170 173 269 166 90 85 67 94 203 190 185 148 145 102 98 102 112 112 93 95 97 87 86 87 84 77 72 64 56 39 39 48 50 41 40 42 46 43 45 47 46 42 42 37 41 36 42 36 39 40 36 32 27 27 28 33 24 24 30 25 27 24 17 23 10 12 13 13 14 14 14 11 11 16 8 7 5 5 5 3 2 3 3 3 2 7 3 4 -9999 -9999 -9999 -9999 -9999 -9999 -9999 -9999 -9999 -9999 -9999 -9999 -9999 -9999 -9999 -9999 -9999 -9999
-9999 418 487 463 400 329 344 428 546 393 454 414 385 324 220 203 107 96 149 174 272 473 711 500 352 760 589 345 338 101 101 162 237 478 180 147 234 233 118 119 119 107 109 153 109 96 115 119 147 142 114 73 102 85 127 203 147 122 128 91 235 134 153 149 135 117 111 93 89 82 83 67 62 42 68 45 43 46 50 49 60 61 63 57 62 46 46 45 41 39 43 41 44 43 38 34 33 30 34 26 35 37 27 23 33 25 25 18 19 11 18 13 13 19 20 14 12 12 13 8 6 3 6 3 2 2 3 1 3 3 3 3 3 -9999 -9999 -9999 -9999 -9999 -9999 -9999 -9999 -9999 -9999 -9999 -9999 -9999 -9999 -9999 -9999 -9999 -9999
-9999 489 638 619 828 492 428 497 632 470 480 354 376 298 166 122 100 94 295 293 384 526 701 819 552 936 653 385 266 101 101 186 312 297 275 237 195 111 103 171 168 144 131 146 132 118 118 129 137 183 104 115 88 110 98 145 159 138 113 107 203 160 189 216 125 159 188 114 97 81 78 55 69 79 85 50 73 51 55 58 49 48 57 57 56 58 56 50 50 43 46 45 45 42 42 46 44 30 44 29 35 30 37 33 28 28 27 23 18 21 16 13 18 21 19 12 16 10 8 8 4 7 4 3 1 1 2 3 1 2 1 2 -9999 -9999 -9999 -9999 -9999 -9999 -9999 -9999 -9999 -9999 -9999 -9999 -9999 -9999 -9999 -9999 -9999 -9999 -9999
-9999 615 719 663 838 570 519 397 507 589 506 407 276 211 134 116 128 126 162 176 430 912 928 1152 955 480 315 210 154 101 121 248 399 596 383 291 251 192 248 226 225 123 158 169 225 170 164 190 191 222 164 211 96 136 133 140 192 125 150 156 187 247 199 164 162 204 140 191 157 89 87 161 88 65 92 98 120 88 84 66 68 66 62 63 52 57 58 55 53 53 55 57 50 51 47 46 58 40 56 29 38 33 38 42 31 41 21 23 15 21 14 18 24 15 16 17 14 12 13 8 5 5 5 3 2 1 3 2 2 4 2 4 -9999 -9999 -9999 -9999 -9999 -9999 -9999 -9999 -9999 -9999 -9999 -9999 -9999 -9999 -9999 -9999 -9999 -9999 -9999
-9999 754 816 804 1034 666 567 459 501 511 543 433 367 299 154 129 128 144 150 179 358 597 732 1000 990 431 322 177 164 101 135 306 463 554 485 477 255 217 230 238 287 243 112 169 218 183 273 234 237 210 261 194 150 120 151 185 228 168 190 191 159 263 255 219 228 182 174 142 102 97 100 95 101 71 65 67 120 124 139 143 61 64 68 59 78 64 69 63 62 65 65 63 64 46 50 47 48 36 48 32 38 43 38 48 35 36 23 25 23 22 14 17 17 19 19 11 9 8 9 14 7 6 7 8 3 3 2 1 2 2 2 1 -9999 -9999 -9999 -9999 -9999 -9999 -9999 -9999 -9999 -9999 -9999 -9999 -9999 -9999 -9999 -9999 -9999 -9999 -9999
-9999 1281 1104 1190 1030 766 719 548 685 595 657 941 553 393 155 157 167 155 145 165 215 283 418 475 433 334 296 179 110 101 113 281 365 622 575 444 316 226 215 246 270 328 148 163 232 284 295 354 400 318 304 322 273 218 340 205 281 385 436 494 348 306 219 247 204 206 138 107 123 145 190 102 75 83 73 97 85 129 140 95 76 116 69 74 74 74 80 72 70 68 70 55 60 51 55 45 45 41 42 34 36 45 40 47 34 25 23 23 23 24 15 18 26 20 20 14 13 8 11 8 7 9 8 6 5 5 4 3 2 3 5 0 0 -9999 -9999 -9999 -9999 -9999 -9999 -9999 -9999 -9999 -9999 -9999 -9999 -9999 -9999 -9999 -9999 -9999 -9999
-9999 1268 1279 1194 1005 887 833 758 650 714 786 479 381 332 288 282 196 178 160 210 299 256 394 547 391 300 195 154 124 101 101 289 345 410 422 435 261 302 223 258 249 216 150 164 212 265 302 485 518 405 415 409 334 324 386 276 399 463 506 388 287 325 385 423 311 303 209 242 230 172 198 245 146 157 96 81 170 184 113 104 99 105 65 55 70 84 78 81 75 67 68 60 65 60 61 50 48 41 43 36 34 38 41 43 35 23 20 21 19 19 21 17 21 21 26 13 17 10 13 13 11 8 7 4 4 7 3 1 2 1 7 0 -1 -9999 -9999 -9999 -9999 -9999 -9999 -9999 -9999 -9999 -9999 -9999 -9999 -9999 -9999 -9999 -9999 -9999 -9999
-9999 1221 1333 1534 1413 1240 1025 891 822 806 853 712 709 641 764 745 510 422 227 286 657 511 321 273 298 314 281 208 104 117 126 197 255 267 277 273 269 264 276 294 429 312 205 316 347 316 282 421 561 484 447 455 418 454 466 382 374 501 425 416 438 517 475 625 420 362 320 471 398 246 280 454 237 244 203 148 214 130 114 108 105 94 87 68 97 106 84 83 72 79 74 73 69 58 57 49 54 50 43 37 38 37 41 45 20 22 18 18 20 20 23 15 18 23 22 26 20 13 17 14 13 9 5 7 5 4 4 3 2 4 2 3 0 -1 -9999 -9999 -9999 -9999 -9999 -9999 -9999 -9999 -9999 -9999 -9999 -9999 -9999 -9999 -9999 -9999 -9999
-9999 1383 1554 1689 1512 1373 1229 876 798 679 760 652 582 615 600 462 316 236 272 330 525 479 435 375 472 610 415 203 148 111 108 237 238 257 263 266 269 270 312 371 506 376 254 400 465 428 354 433 449 595 593 570 528 518 549 586 599 460 471 470 403 488 506 478 457 567 497 441 498 323 572 447 440 262 202 120 145 176 129 170 83 79 72 98 86 132 205 232 138 90 74 64 59 57 57 49 51 44 44 40 44 42 37 39 22 21 23 23 20 26 20 25 17 19 23 23 18 16 18 17 17 13 7 8 6 6 6 2 4 3 2 6 -1 -1 -9999 -9999 -9999 -9999 -9999 -9999 -9999 -9999 -9999 -9999 -9999 -9999 -9999 -9999 -9999 -9999 -9999
872 1031 1232 1451 1662 1286 1121 1096 915 676 640 468 394 361 404 307 270 332 518 566 800 538 716 568 421 475 349 472 366 332 204 169 207 275 256 261 276 282 329 425 398 460 317 505 542 459 422 515 601 623 622 560 568 630 602 621 525 488 515 457 467 483 494 492 493 540 569 452 493 413 352 347 416 334 162 337 320 172 132 88 92 95 82 111 123 86 160 201 247 175 77 70 59 60 57 48 50 42 41 42 38 38 25 31 28 30 11 24 24 28 21 26 22 23 24 27 25 29 22 21 13 15 10 9 8 7 6 6 10 5 4 2 1 1 -9999 -9999 -9999 -9999 -9999 -9999 -9999 -9999 -9999 -9999 -9999 -9999 -9999 -9999 -9999 -9999 -9999
861 969 1158 1377 1451 1389 1336 1163 1081 823 700 539 445 437 435 367 456 510 650 720 641 543 552 541 451 298 294 407 348 302 305 336 106 160 152 163 276 298 376 478 481 544 560 612 646 654 642 672 659 592 596 647 701 705 671 593 556 563 579 563 591 568 534 510 519 505 462 559 488 458 491 544 533 407 266 499 498 198 156 108 227 217 111 211 128 99 152 142 165 92 179 195 144 56 50 49 47 41 38 48 39 40 24 24 29 24 18 23 22 22 21 29 27 24 27 32 31 24 20 20 19 17 11 9 9 12 11 8 5 11 6 3 9 2 -9999 -9999 -9999 -9999 -9999 -9999 -9999 -9999 -9999 -9999 -9999 -9999 -9999 -9999 -9999 -9999 -9999
977 983 1032 1229 1431 1658 1306 1082 964 915 953 752 697 605 507 500 514 587 422 474 410 417 388 453 418 316 255 375 593 300 288 279 281 424 230 105 292 313 343 405 538 574 623 646 657 673 705 716 693 641 663 715 748 730 720 650 656 637 616 611 614 605 556 515 504 501 441 452 423 422 379 370 281 343 589 589 463 208 157 116 181 177 162 241 153 118 161 132 130 130 134 202 175 64 50 51 46 41 39 41 46 34 27 28 23 26 25 26 27 27 38 28 32 29 30 33 34 28 29 28 23 15 17 12 14 19 14 17 10 7 3 5 5 5 -9999 -9999 -9999 -9999 -9999 -9999 -9999 -9999 -9999 -9999 -9999 -9999 -9999 -9999 -9999 -9999 -9999
1035 1052 1091 1241 1422 1314 1266 1017 990 905 879 889 915 741 624 643 648 594 558 384 333 409 257 247 241 345 415 245 221 321 302 244 216 315 259 240 374 374 459 562 561 588 679 636 685 744 766 755 758 699 698 860 946 908 908 862 808 741 748 752 708 693 564 546 467 474 443 367 335 330 331 394 437 461 393 556 573 369 349 164 273 276 307 286 277 141 167 164 119 134 139 189 144 132 65 53 48 41 37 35 46 32 30 26 28 26 28 26 32 28 28 30 30 33 30 35 35 28 35 32 25 15 23 14 17 17 14 17 12 9 6 6 2 6 -9999 -9999 -9999 -9999 -9999 -9999 -9999 -9999 -9999 -9999 -9999 -9999 -9999 -9999 -9999 -9999 -9999
1174 1260 1289 1520 1539 1225 1174 1077 1026 903 882 827 783 843 721 664 680 570 523 411 336 337 277 261 246 302 210 234 258 216 267 215 216 309 320 348 395 397 532 573 612 632 679 658 680 776 773 764 806 771 794 1066 1169 1226 1135 998 871 855 825 824 783 718 608 572 500 468 437 395 369 327 366 356 416 450 447 541 593 418 359 212 305 321 386 374 360 340 294 310 170 140 210 277 230 79 68 61 44 39 38 31 31 30 28 28 29 28 31 32 39 38 36 33 45 39 42 42 53 42 48 109 86 23 26 28 26 24 24 23 23 19 10 6 6 6 -9999 -9999 -9999 -9999 -9999 -9999 -9999 -9999 -9999 -9999 -9999 -9999 -9999 -9999 -9999 -9999 -9999
1337 1291 1620 1660 1658 1256 1227 1108 1049 942 843 797 766 840 845 826 620 589 478 413 308 298 324 323 354 288 216 216 216 216 216 216 233 276 287 319 381 419 503 560 600 669 661 706 714 741 788 838 911 960 1106 1390 1584 1795 1735 1244 1123 1055 1012 962 804 749 672 665 603 511 478 411 366 359 353 366 397 414 483 607 597 442 370 264 325 437 429 402 335 369 284 304 255 163 257 230 147 65 64 60 53 38 37 31 31 27 33 28 28 29 31 34 41 39 39 49 48 49 45 46 44 40 65 120 166 26 28 30 28 22 28 25 26 28 23 14 7 3 5 -9999 -9999 -9999 -9999 -9999 -9999 -9999 -9999 -9999 -9999 -9999 -9999 -9999 -9999 -9999 -9999
1575 1522 1578 1791 1745 1324 1237 1144 1090 1030 888 801 794 837 826 803 656 626 486 404 405 414 391 404 368 232 247 216 216 216 216 216 238 270 296 347 391 428 477 524 636 608 721 691 715 743 838 917 946 1184 1105 1546 1725 1601 1649 1565 1303 1165 1079 978 835 789 680 639 625 628 543 459 421 392 403 389 392 513 559 504 457 350 320 349 475 518 599 644 760 659 408 335 350 295 187 175 134 56 61 85 68 53 41 33 30 32 30 30 28 32 40 41 44 47 41 49 53 64 59 60 60 111 176 406 223 41 34 34 35 33 32 32 31 32 23 27 7 10 4 2 -9999 -9999 -9999 -9999 -9999 -9999 -9999 -9999 -9999 -9999 -9999 -9999 -9999 -9999 -9999
2174 2250 2053 1824 1730 1517 1470 1250 1177 1021 962 889 1064 974 773 803 740 634 376 397 335 339 287 322 278 232 209 232 222 216 236 216 223 269 300 346 366 487 478 592 682 647 661 754 820 887 926 1009 1205 1397 1419 1768 1571 1710 1906 1892 1692 1336 1242 1156 935 786 676 713 892 839 527 504 494 471 431 418 402 487 538 590 514 382 334 414 508 646 721 838 1094 859 568 459 361 259 134 96 97 72 75 91 99 68 39 33 37 30 28 33 32 36 40 42 52 47 48 63 61 71 73 72 69 259 232 449 167 98 74 57 53 60 43 50 43 45 41 28 15 11 5 4 3 -9999 -9999 -9999 -9999 -9999 -9999 -9999 -9999 -9999 -9999 -9999 -9999 -9999 -9999
2561 2629 2506 1978 1897 1631 1505 1294 1207 1046 1196 1190 1059 947 787 740 538 460 458 363 294 330 296 277 245 249 244 216 216 267 253 241 215 249 309 374 383 429 486 488 597 622 627 769 901 947 1027 1109 1291 1717 1525 1766 1546 1697 1880 1884 1774 1379 1271 1279 979 982 886 998 919 944 711 833 908 754 715 483 512 529 526 532 444 412 362 442 579 630 934 1165 1434 1123 665 558 456 369 223 170 93 88 96 69 73 52 54 36 37 37 35 39 44 39 42 52 55 57 61 64 72 73 78 77 85 118 292 244 124 67 55 65 79 54 48 52 60 49 45 44 17 16 3 7 1 -9999 -9999 -9999 -9999 3 -9999 -9999 -9999 -9999 -9999 -9999 -9999 -9999 -9999
2111 2404 2639 2445 2337 1921 1695 1271 1196 986 943 913 993 788 659 693 789 622 448 345 300 295 276 267 264 270 216 250 216 295 440 296 278 282 292 309 349 400 552 681 549 577 693 696 907 923 1021 1086 1192 1519 1779 1742 1663 1636 1806 1833 1730 1444 1382 1346 1313 1216 838 1069 1074 911 762 882 1103 975 652 639 657 628 559 573 494 427 402 432 486 594 902 1100 1346 1275 658 559 470 367 181 113 154 96 69 79 85 42 55 39 49 47 47 47 46 44 64 56 61 63 64 61 87 91 114 113 140 185 269 252 261 106 99 133 133 105 119 85 93 80 62 41 27 28 14 5 4 4 -2 -9999 0 4 3 4 -9999 -9999 -9999 -9999 -9999 -9999 -9999
2067 2543 2348 2771 2776 2016 1661 1248 1170 980 899 897 814 718 608 588 480 459 345 337 317 302 279 280 267 246 221 256 222 237 342 486 347 295 370 310 314 407 542 598 505 543 660 734 828 922 967 1051 1109 1263 1391 1395 1381 1497 1571 1591 1558 1422 1359 1277 1499 1342 1278 1300 1255 1201 1224 1274 1090 991 1213 923 824 825 968 642 643 570 493 551 564 600 677 853 928 807 606 591 473 366 206 157 171 177 134 51 44 41 85 72 57 44 57 53 46 60 58 77 67 67 69 76 91 98 127 135 143 203 194 147 151 145 130 172 176 150 143 167 110 101 113 56 59 36 26 10 5 1 2 -2 -2 1 1 -9999 -9999 -9999 -9999 -9999 -9999 -9999 -9999
1811 1891 2015 2574 2655 2053 1665 1314 1171 960 870 749 691 593 566 524 447 414 374 356 322 315 291 278 261 243 261 271 275 259 269 313 389 293 352 452 482 438 477 542 490 524 646 721 847 848 970 1068 1130 1201 1231 1225 1303 1373 1406 1394 1375 1387 1251 1249 1243 1367 1446 1481 1425 1410 1468 1529 1493 1404 1395 974 1189 1037 926 817 778 728 538 505 537 608 672 639 692 693 575 518 472 351 205 133 80 79 63 49 54 85 91 64 44 53 57 57 71 69 61 70 107 111 91 99 106 127 163 180 212 260 301 286 266 281 276 262 270 296 277 233 224 215 187 200 113 104 47 45 20 13 6 7 2 3 0 0 -9999 -9999 -9999 -9999 -9999 -9999 -9999
1565 1699 1856 2146 2251 1829 1569 1250 1167 943 857 724 668 593 551 518 461 436 384 365 328 313 296 281 236 262 268 273 269 270 261 276 308 304 299 337 387 438 459 548 536 518 593 598 669 748 898 943 1051 1135 1152 1229 1176 1246 1221 1224 1256 1178 1164 1161 1199 1158 1366 1410 1938 2070 1753 1866 1612 1459 1495 1610 1442 1137 903 720 706 874 723 563 549 546 553 538 536 525 462 431 383 342 254 306 379 168 98 57 63 102 64 43 43 43 60 66 62 82 77 72 103 108 108 119 162 199 193 237 244 325 344 378 393 389 467 362 310 321 275 238 257 230 199 180 120 162 119 91 39 17 8 5 8 3 5 2 4 -9999 -9999 -9999 -9999 -9999 -9999
1319 1376 1475 1715 1652 1418 1319 1061 1037 854 805 672 626 544 516 484 438 419 382 363 332 315 286 287 253 266 265 271 274 281 282 268 267 285 345 332 338 397 424 477 540 519 812 709 657 705 846 889 928 1093 1148 1222 1195 1247 1192 1243 1235 1197 1141 1163 1185 1216 1252 1380 1636 1678 1723 1607 1539 1499 1240 1307 1450 1051 890 831 727 673 751 528 532 535 528 527 503 473 432 377 315 264 319 391 389 253 147 196 83 102 81 64 51 51 53 74 87 103 118 133 129 115 160 172 277 318 356 427 442 453 549 576 674 657 622 515 444 363 309 337 311 318 251 252 243 215 137 148 61 30 14 7 7 6 6 2 1 1 1 2 9 -9999 -9999
1206 1288 1273 1399 1417 1321 1229 1055 958 827 774 648 602 519 493 477 427 410 377 363 337 328 302 287 275 283 277 282 286 292 300 245 295 314 340 348 361 460 518 541 709 748 741 759 695 711 757 836 879 917 986 1015 1045 1073 1069 1096 1174 1169 1194 1288 1341 1418 1581 1394 1429 1488 1737 1525 1420 1477 1150 1061 1117 882 864 825 832 611 589 477 473 474 429 484 531 435 396 335 270 317 283 331 410 303 214 209 85 97 112 177 122 53 76 64 91 95 128 131 143 160 221 217 313 353 440 486 525 539 624 702 750 800 800 554 511 441 380 383 350 354 283 294 256 205 199 133 57 53 21 10 10 9 6 7 5 10 7 4 2 2 -9999
1065 1142 1134 1164 1185 1223 1085 949 888 749 697 620 589 517 490 464 428 406 368 359 345 332 301 297 284 283 285 285 287 300 300 249 280 316 321 355 374 497 781 732 804 921 770 745 681 684 743 790 809 875 900 951 991 1026 1046 1024 1068 1110 962 1249 1331 1340 1396 1526 1575 1488 1586 1609 1268 1278 1084 1088 1041 847 867 794 811 628 519 467 465 461 465 420 373 359 380 385 324 342 311 334 377 394 408 255 231 201 217 159 145 110 149 134 283 104 136 157 193 229 319 344 431 414 514 610 676 830 852 1053 1208 1119 1012 732 707 587 511 480 408 394 329 314 231 275 221 171 72 78 49 15 15 13 12 8 7 4 6 6 3 5 -9999
1025 1030 1064 1079 1119 1091 1027 910 843 724 676 605 569 511 486 470 472 424 372 364 348 335 311 308 326 317 310 308 360 388 288 273 323 307 287 359 527 587 872 805 783 746 690 661 665 654 693 711 755 775 809 857 874 910 903 874 871 911 955 1104 1022 1121 1189 1167 1289 1376 1464 1296 1182 1156 1024 1029 1039 907 892 726 760 726 601 462 531 446 501 650 423 381 483 364 355 344 326 329 357 380 304 197 242 313 269 260 220 116 108 205 310 128 296 166 229 255 326 358 450 434 506 616 757 974 1011 1209 1374 1333 1185 856 787 646 560 500 446 411 360 358 277 255 191 160 108 71 61 25 18 19 13 10 9 8 10 8 9 7 -9999
936 974 985 989 1030 979 965 871 825 720 663 587 561 508 488 470 490 455 389 376 358 350 316 321 323 321 314 371 441 480 312 390 537 342 433 515 690 784 885 715 690 687 658 658 656 667 697 718 752 760 780 818 832 864 867 816 840 836 908 936 932 1069 1052 1088 1190 1364 1479 1346 1083 1036 1000 1058 948 930 910 752 738 599 597 492 532 617 467 538 583 474 548 408 418 418 354 376 346 229 225 226 210 336 405 461 282 339 368 122 161 412 261 235 245 331 386 419 474 522 641 730 913 1150 1331 1685 1915 1572 1434 1009 879 689 604 453 457 431 386 360 286 303 195 158 115 83 44 29 26 17 16 8 11 12 11 13 7 9 -9999
826 840 859 845 866 842 838 814 898 762 630 568 542 494 480 463 432 421 404 400 373 328 347 350 349 362 485 395 323 395 512 828 840 680 742 727 703 767 680 671 660 639 640 636 657 657 710 765 733 743 748 760 776 777 786 785 766 744 769 779 833 827 950 1097 1097 1342 1654 1233 1006 1001 903 908 907 903 915 824 782 740 723 579 664 597 478 548 621 680 486 542 523 448 390 497 279 236 231 216 222 288 304 534 396 413 371 116 341 329 350 271 297 340 431 453 515 579 718 864 1206 1288 1414 1940 2159 2240 2051 1400 1058 679 614 500 454 431 374 362 272 233 209 197 159 112 50 27 26 20 18 14 15 12 12 15 10 13 -9999
761 783 789 799 810 788 780 917 1072 769 719 566 557 497 474 461 432 423 393 367 342 344 338 367 469 432 504 423 431 530 677 799 708 517 678 729 675 776 690 664 646 650 655 656 637 661 687 698 724 729 727 740 754 757 752 765 741 715 709 729 719 757 800 822 893 987 1151 1010 912 873 873 883 875 831 835 891 859 905 857 662 693 696 512 637 680 822 603 684 687 747 466 380 270 257 234 254 234 237 295 344 379 589 469 379 319 389 419 460 560 580 634 507 563 612 791 916 1261 1303 1464 2148 2610 2646 2400 1594 1180 729 629 514 471 445 442 397 271 225 219 198 208 122 47 26 32 24 20 16 13 16 16 16 11 12 -9999
677 693 690 701 703 703 875 928 1084 887 757 676 625 685 564 488 437 436 410 397 392 407 400 558 611 602 565 581 601 834 962 709 728 726 695 676 680 638 638 637 652 653 657 638 659 659 667 730 712 708 704 734 738 733 741 736 728 700 695 690 691 718 734 754 838 879 976 921 872 838 842 869 863 877 832 891 1027 1053 1046 759 812 751 600 561 1020 1100 680 902 961 878 537 437 292 285 238 239 238 252 278 381 488 449 401 430 255 315 426 475 450 471 573 524 657 649 838 1025 1217 1323 1408 2141 2438 2694 2430 1572 1275 797 663 537 488 490 419 423 315 280 249 216 73 47 77 52 81 34 48 22 19 20 26 15 18 14 -9999
640 653 663 660 650 641 748 887 983 900 749 663 618 785 596 465 438 435 398 375 446 526 564 523 678 843 838 812 829 796 877 682 724 680 716 638 644 646 638 642 654 651 657 658 638 665 693 676 728 701 695 710 714 717 712 705 700 688 686 680 678 681 685 693 756 785 808 782 783 783 849 886 852 870 886 1138 1355 1494 1364 864 1165 979 695 756 1049 1105 766 1000 697 675 461 613 304 306 251 232 242 367 377 426 436 511 373 261 341 333 276 253 306 345 494 628 737 638 818 973 1140 1191 1375 1915 2215 2391 2079 1359 1298 743 674 518 490 556 486 356 295 298 223 146 63 72 65 69 80 73 47 29 21 26 19 19 16 14 -9999
569 585 596 597 594 603 583 757 809 854 781 636 611 586 487 456 448 428 527 500 439 603 660 736 717 845 998 1005 809 730 747 770 759 799 700 639 693 695 708 637 646 638 657 656 663 669 666 670 692 690 690 699 703 706 701 699 695 688 683 681 674 673 677 683 711 733 768 784 742 715 848 1098 844 865 902 1217 1408 1439 1434 1091 1216 984 800 881 951 1106 1007 939 840 842 586 473 385 312 263 239 295 286 285 400 436 470 491 440 484 231 432 403 440 470 590 525 711 875 850 1020 1118 1267 1496 2060 1959 1715 1558 1311 1069 712 648 543 511 527 452 403 334 251 173 237 250 235 206 176 173 158 81 34 44 29 19 20 18 15 -9999
545 556 566 566 571 555 564 690 770 747 702 611 554 559 462 485 457 479 599 642 552 751 467 662 715 830 991 856 787 810 977 738 845 761 702 646 675 677 660 640 637 638 661 660 664 653 668 670 673 674 679 686 688 689 689 687 683 678 677 674 671 670 666 668 668 670 680 694 683 684 790 810 776 759 856 1058 1204 1437 1360 1302 1188 1353 1257 1083 1167 1443 1249 1273 1004 835 714 585 507 338 246 264 258 266 305 373 362 474 465 312 399 423 469 662 511 428 584 602 704 803 939 915 1100 1208 1305 1777 1794 1585 1449 996 945 701 633 540 508 486 447 399 341 353 266 243 257 241 211 196 157 149 81 65 52 43 42 26 20 18 -9999
511 536 600 649 730 606 579 597 591 661 716 630 589 550 539 514 598 750 786 762 693 510 745 813 909 873 853 867 841 911 886 917 830 704 696 670 666 669 643 656 640 655 682 849 695 679 678 755 666 669 676 682 678 680 677 679 679 675 675 672 670 665 665 666 669 663 672 679 680 682 684 687 735 737 800 953 1078 1178 1222 1147 1163 1220 1393 1308 1281 1570 1242 1075 933 829 618 588 450 350 356 313 317 330 429 474 467 402 458 331 316 302 284 294 372 443 552 488 639 713 828 917 1096 1108 1151 1418 1467 1191 1191 1019 903 767 706 592 545 500 428 384 343 285 260 233 243 245 191 163 153 81 50 65 41 30 51 33 36 24 -9999
509 505 595 657 705 607 637 678 626 695 776 700 624 615 661 627 702 659 836 655 487 619 698 760 934 902 965 946 964 1077 1146 1063 1061 822 806 772 718 663 660 662 640 646 882 1053 1060 855 859 775 661 657 666 668 669 668 669 662 666 668 665 669 668 662 663 664 663 666 666 671 672 668 678 678 681 683 767 830 929 1158 1214 1274 1333 1354 1447 1146 1526 1379 1327 1134 935 842 745 645 354 368 309 353 368 399 443 556 555 478 438 388 345 304 302 363 322 352 458 510 594 661 811 841 1019 1107 1133 1203 1303 1039 1015 877 796 743 669 573 522 446 410 386 308 277 245 224 192 185 161 146 140 138 90 35 30 24 27 71 63 27 -9999
644 623 618 601 644 667 669 680 784 899 857 920 710 833 795 808 775 845 762 615 556 830 876 802 890 893 908 968 1013 1043 1078 1168 1055 749 826 720 699 666 669 658 662 658 1018 1082 1077 1095 884 871 665 662 665 663 665 664 663 661 663 663 667 663 664 662 663 661 666 664 664 667 667 666 671 676 683 690 695 868 1024 1367 1353 1190 1122 1192 1355 1105 1044 1133 1040 949 754 703 619 645 558 596 414 433 591 698 696 878 839 609 646 528 514 382 402 359 445 490 438 550 552 624 686 754 846 859 978 941 949 949 806 723 661 593 566 516 487 429 393 375 298 267 229 226 193 183 151 145 136 139 130 39 101 85 44 91 57 40 -9999
586 623 788 716 920 941 769 826 755 932 930 920 757 905 978 1031 992 942 757 707 554 719 927 932 950 995 970 995 956 1153 1071 988 961 871 852 837 811 738 708 712 661 677 890 850 910 1002 706 690 668 661 666 661 660 661 662 662 664 664 666 659 663 662 661 666 664 664 665 665 667 666 670 670 683 686 710 754 873 1139 1174 1240 1000 1030 1051 881 921 980 1005 904 772 734 633 544 673 463 553 561 639 689 773 901 851 705 810 609 547 391 396 355 532 646 565 519 586 631 632 675 775 845 872 891 903 825 784 629 652 571 536 453 469 411 376 346 283 260 205 198 184 176 152 141 127 130 118 44 48 183 108 86 68 43 -9999
607 674 917 887 1085 1053 997 1050 1034 1023 1195 951 777 1024 1023 1121 1022 1082 803 828 759 955 985 962 943 951 974 957 957 1189 1007 987 886 903 948 887 846 813 749 688 669 773 769 846 919 1066 776 858 665 667 667 664 665 666 664 663 664 661 665 662 661 664 663 664 663 664 665 664 664 668 665 668 690 708 715 781 823 929 916 987 1004 1045 934 793 672 670 811 726 563 565 562 566 586 622 660 668 738 901 943 969 912 920 912 787 621 517 492 424 414 527 832 686 594 598 597 609 628 625 794 820 799 766 735 589 555 527 489 518 446 373 372 336 270 242 206 212 177 170 148 136 121 79 48 43 52 70 112 98 73 48 -9999
775 826 1095 1045 1014 1043 1091 1147 1186 1094 1159 996 1011 1000 1066 1161 1019 1004 972 983 792 811 936 902 938 935 1019 1121 1106 1004 1041 1050 995 1139 1285 1169 1000 783 815 728 900 940 943 1019 986 942 800 737 704 687 670 671 668 668 667 758 795 808 676 663 664 666 669 666 667 664 668 671 665 667 667 671 691 743 737 785 817 837 854 1006 823 903 904 789 712 675 637 719 553 537 491 422 555 614 692 750 895 946 1009 1013 1053 982 930 876 800 573 506 487 444 526 661 655 678 584 575 579 580 617 696 863 717 703 698 561 541 598 634 685 628 343 273 282 330 247 181 167 147 145 125 115 108 64 60 102 63 129 147 97 104 213 -9999
849 900 1069 1033 1048 1118 1149 1135 1256 1190 1104 1132 1079 1035 1064 1023 1002 996 985 967 711 972 1068 1061 1017 988 1019 1093 1079 1066 1067 1082 1118 1197 1300 1187 1027 863 779 826 1117 1177 1013 978 1035 889 760 751 713 688 674 670 670 665 668 798 952 839 787 676 688 716 673 675 668 673 671 670 673 667 682 678 757 801 860 900 873 978 1000 899 876 661 663 715 725 588 510 516 525 510 476 467 534 586 697 791 1105 1210 1338 1293 1223 1083 951 878 820 623 589 603 583 616 656 730 598 592 604 578 581 585 598 656 747 703 763 602 599 776 678 403 345 214 196 233 350 254 151 138 131 121 109 113 99 63 92 90 149 296 323 97 83 83 -9999
973 1092 1012 1024 990 1038 1128 1139 1238 1123 1227 1228 1143 1085 1102 1109 1072 1023 906 843 835 956 1004 1020 1075 1119 1217 1263 1166 1178 1168 1080 1138 1370 1341 1338 1377 1114 1069 1223 1343 1205 1199 1189 1204 925 843 772 693 686 689 679 667 667 675 685 693 986 949 801 790 828 677 682 676 666 669 672 674 673 696 733 807 894 1004 1023 946 1058 992 783 686 660 642 574 550 555 520 508 506 512 435 527 506 552 655 754 1124 1403 1481 1477 1313 1067 990 836 775 691 650 649 657 654 677 830 763 711 645 594 583 584 624 746 739 707 747 705 727 628 628 393 282 340 272 223 172 154 143 125 120 142 143 116 79 79 143 123 182 258 128 77 82 66 -9999
989 1046 1038 1010 1003 1003 1122 1064 1164 1109 1125 1186 1219 1148 1134 1049 1093 1195 991 934 925 908 914 957 1147 1178 1204 1348 1411 1320 1306 1277 1115 1401 1442 1421 1403 1409 1326 1337 1300 1257 1318 1323 1203 1033 920 875 751 701 693 694 678 680 683 759 830 893 916 875 838 856 993 706 695 698 681 672 682 697 755 789 1017 1108 1118 1256 1533 1133 910 1049 1031 634 650 620 639 537 508 522 532 537 555 582 583 609 601 679 1176 1220 1354 1614 1431 1073 1031 860 849 786 739 727 744 755 749 881 848 842 686 640 593 602 631 647 750 823 949 869 522 472 456 360 275 228 223 268 310 315 190 318 141 110 103 132 106 107 89 125 166 202 111 73 80 73 -9999
870 931 988 1019 1015 997 1010 1056 1109 1122 1066 1093 1086 1089 1117 966 995 1099 1067 1006 886 922 973 988 1178 1345 1394 1479 1579 1624 1592 1543 1276 1187 1210 1300 1291 1368 1317 1370 1163 1171 1215 1109 1177 952 1010 958 811 737 711 702 707 713 739 795 825 939 948 984 827 788 779 740 742 725 697 676 686 722 776 853 1021 1090 1086 1395 1416 1111 927 853 859 649 782 654 548 539 527 534 622 665 589 618 629 699 621 685 1050 1192 1290 1198 1471 1050 912 797 781 823 893 961 978 1040 998 1135 1121 1181 1137 940 740 594 531 608 719 801 584 448 397 361 327 274 305 331 316 288 373 272 440 371 553 281 261 165 126 143 137 203 184 129 84 97 90 71 -9999
867 889 977 1019 1051 1049 986 1099 1146 1136 1065 1096 1007 1011 1023 956 920 1089 1080 981 875 939 1009 1101 1241 1409 1535 1599 1708 1741 1742 1431 1421 1281 1270 1317 1347 1380 1356 1260 1193 1167 1120 1068 983 1042 1193 1208 1050 802 745 764 798 825 853 952 944 1090 1086 959 974 810 811 782 772 777 704 727 787 788 921 951 1270 1214 1110 951 928 746 718 693 678 668 917 632 587 560 581 566 738 782 743 722 849 730 618 685 1062 1369 1331 909 1080 1015 901 749 717 699 805 979 1019 1015 1007 967 1021 1056 1252 1270 769 673 527 447 591 841 814 540 594 459 431 442 495 446 444 401 320 197 255 301 361 580 219 164 201 139 169 232 206 118 129 155 131 82 -9999
783 844 918 909 884 1016 1031 1028 1043 1031 1068 1007 1048 984 1010 881 958 1054 1174 1100 975 1098 1173 1202 1279 1526 1746 1788 1660 1871 1816 1588 1534 1394 1409 1460 1479 1471 1461 1321 1240 1210 1139 1076 1030 1096 1207 1196 1087 930 778 808 846 932 967 1062 1067 1140 1160 1005 901 823 828 815 796 749 740 784 845 915 973 1145 1207 1381 1006 884 812 757 728 684 667 707 622 608 603 589 588 597 961 1030 918 915 863 887 860 744 1020 1031 1001 1067 892 1071 934 727 625 593 689 791 802 904 831 826 817 856 957 1001 813 735 470 541 427 439 473 634 712 851 662 576 618 572 687 489 540 529 261 245 272 561 270 167 209 300 250 201 167 193 156 165 131 102 -9999
768 820 818 819 856 1013 1006 1051 1064 1026 984 1080 881 944 890 905 961 1006 1251 1222 1112 1092 1237 1394 1392 1470 1718 1700 1521 1528 1587 1738 1689 1579 1606 1925 1812 1501 1918 1403 1275 1257 1154 1106 1104 1118 1272 1392 1129 937 837 848 890 1075 1150 1330 1480 1496 1464 1158 1157 928 883 864 883 877 822 862 944 995 1293 1292 1304 1230 1155 1110 988 835 752 704 693 666 629 620 603 593 607 616 961 1008 1126 1040 971 978 833 790 857 1026 874 936 794 963 827 637 610 562 646 809 756 824 813 814 859 812 775 800 710 812 540 456 530 417 356 453 523 479 516 853 915 831 779 787 758 772 390 299 285 244 246 244 296 231 336 339 418 333 319 248 241 276 -9999
712 737 754 732 841 870 907 931 889 926 952 840 858 930 948 926 983 1102 1190 1188 1302 1253 1244 1262 1408 1505 1540 1428 1475 1521 1559 1781 1703 1617 1616 1832 1730 1685 1613 1345 1355 1275 1195 1124 1110 1123 1199 1301 1143 909 859 875 904 1157 1224 1629 1719 1574 1602 1306 1208 974 939 1029 913 932 930 986 1100 1191 1380 1440 1458 1368 1213 1115 1042 951 785 755 724 681 667 620 606 649 653 664 1186 1375 1581 1598 1335 1086 972 821 770 686 725 639 602 538 523 483 536 593 624 586 702 892 919 823 633 629 732 773 786 760 613 665 520 468 521 312 385 331 324 327 360 559 695 575 670 621 424 310 471 405 255 347 383 297 362 384 512 394 379 362 392 278 -9999
711 729 758 724 805 846 855 824 814 887 889 788 879 925 943 944 889 840 790 786 996 1188 1291 1327 1221 1366 1595 1694 1683 1812 1783 1542 1499 1553 1638 1779 1924 1871 1597 1460 1378 1360 1292 1267 1226 1306 1207 1183 1104 1114 941 1017 1173 1318 1533 1618 1736 2176 2050 1446 1272 1059 1003 1128 1227 1197 1189 1224 1350 1339 1537 1803 1734 1653 1332 1411 1215 909 801 804 723 656 624 625 643 647 670 680 1208 1464 1451 1517 1295 1179 1056 892 655 604 531 523 504 512 508 473 473 478 492 611 601 742 769 803 580 552 597 618 677 725 682 706 473 418 375 332 317 296 297 294 325 371 462 437 558 595 643 563 576 428 520 396 462 497 438 451 591 724 616 865 824 753 -9999
630 653 684 693 732 745 790 827 784 861 823 769 837 855 947 876 837 731 653 772 978 1074 1137 1167 1333 1370 1494 1444 1631 1659 1620 1436 1425 1560 1537 1827 1752 1729 1689 1522 1433 1468 1493 1393 1355 1362 1269 1293 1248 1176 1070 1096 1256 1393 1530 1850 2011 2245 1797 1421 1289 1104 1024 1259 1334 1356 1262 1397 1574 1485 1636 1726 1794 1849 1932 2117 1737 1263 981 888 715 648 655 652 658 675 668 678 812 934 1214 1109 1379 1370 1150 924 672 633 480 486 471 475 475 486 459 460 474 573 656 731 739 695 574 556 515 488 535 564 689 661 518 529 486 372 328 361 369 296 266 282 275 315 327 400 422 528 661 703 769 568 592 756 545 488 525 975 843 956 794 748 -9999
600 623 662 688 669 679 668 673 796 766 728 804 795 843 825 712 713 577 656 720 896 992 1184 1273 1169 1151 1367 1319 1328 1420 1364 1376 1455 1531 1642 1694 1752 2187 2048 1760 1633 1674 1749 1706 1619 1554 1462 1583 1752 1434 1131 1270 1384 1522 1764 2010 2149 2197 1995 1616 1456 1233 1215 1224 1593 1724 1300 1575 1556 1476 1560 1723 1830 1959 2031 1770 1783 1229 906 777 891 655 635 649 659 663 673 692 754 782 923 944 1265 1296 1303 1232 780 655 486 486 482 482 460 457 456 493 587 630 701 736 743 721 575 516 445 437 467 514 495 582 571 560 543 503 445 426 485 502 484 267 325 309 374 480 669 604 849 786 948 1089 1076 928 883 774 812 1226 1187 793 725 597 -9999
542 487 581 579 632 612 574 654 705 749 776 791 808 741 780 589 521 554 621 613 851 943 1194 1202 1177 1272 1334 1285 1276 1351 1294 1378 1426 1557 1634 1798 1865 2393 2157 1974 1714 1886 1860 1805 1730 1777 1599 1824 1712 1518 1229 1271 1482 1490 1580 1921 1951 2226 2117 1645 1552 1311 1283 1293 1388 1480 1588 1553 1455 1517 1365 1474 1570 1760 1546 1468 1182 845 774 790 738 706 680 688 686 689 705 734 747 794 889 918 1064 1173 1528 1230 860 695 538 514 504 484 470 460 471 758 939 976 886 979 943 807 629 602 459 454 424 459 463 506 464 506 494 520 541 553 597 499 467 248 267 335 352 535 587 754 1082 1012 774 872 1130 1220 1063 1288 1336 1233 981 950 799 672 -9999
525 514 502 537 546 522 510 614 655 744 637 581 563 599 562 602 567 443 507 595 855 1099 1011 1133 1149 1187 1284 1256 1177 1253 1229 1258 1376 1491 1580 1683 1883 2301 2232 1981 1980 1944 2071 1936 2047 2070 1838 1636 1483 1412 1398 1363 1434 1464 1538 1807 1887 1975 2029 1736 1622 1400 1265 1378 1783 1734 1614 1527 1482 1333 1418 1418 1612 1407 1293 1150 883 801 747 723 737 690 702 703 679 712 722 782 795 836 983 1062 1195 1283 1337 1169 829 681 581 554 554 494 483 454 535 859 1275 1022 1185 1166 1123 997 862 680 519 452 433 413 426 443 438 452 447 445 439 488 526 548 416 333 304 308 352 748 738 844 835 640 934 917 982 862 994 1156 1008 1091 1018 934 764 677 -9999
471 453 416 478 508 490 547 688 729 780 611 537 569 583 468 531 472 442 540 594 827 1029 1112 1145 1085 1165 1229 1204 1076 1177 1245 1310 1324 1426 1490 1687 1838 2087 2103 1959 2006 1933 1958 1764 2124 1965 1767 1669 1451 1397 1441 1382 1442 1463 1485 1562 1640 1806 1806 1669 1530 1459 1387 1503 1675 1755 1626 1417 1360 1312 1194 1227 1071 1123 1027 959 761 759 742 702 695 685 694 703 707 752 783 865 917 949 1183 1333 1636 1660 1290 1142 882 802 676 638 622 511 491 453 593 924 1276 1326 1388 1294 1274 1210 878 773 545 527 453 423 357 408 421 444 440 443 444 459 435 489 522 503 377 315 426 569 603 578 656 597 731 753 613 685 912 1115 950 735 835 887 805 620 -9999
364 428 319 370 366 499 464 511 478 531 497 483 469 454 477 405 374 525 672 657 914 1027 802 790 902 906 968 1043 1192 1312 1374 1503 1446 1476 1574 1699 1776 1930 1879 1775 1742 1827 1678 1572 1815 2033 1747 1631 1471 1454 1430 1433 1442 1466 1504 1544 1631 1884 1676 1612 1525 1421 1514 1580 1774 1682 1575 1552 1300 1239 1081 1040 1039 994 935 858 771 770 741 707 704 700 709 726 734 766 798 892 942 1022 1162 1344 1617 1722 1448 1170 895 849 704 642 615 530 504 456 470 768 894 1527 1537 1388 1568 1288 1218 950 563 517 450 380 372 365 402 446 488 482 417 511 475 388 382 363 420 462 300 214 239 326 315 472 524 490 688 778 800 901 814 721 694 788 659 605 -9999
320 369 253 252 393 365 392 408 440 505 480 459 464 458 363 386 368 473 550 784 888 845 787 833 1150 1126 1215 1264 1207 1185 1308 1471 1491 1674 1696 1613 1651 1715 1627 1667 1756 1897 1670 1432 1499 1710 1842 1698 1452 1423 1442 1457 1512 1537 1518 1554 1642 2153 1850 1574 1564 1618 1686 1985 1967 1637 1555 1478 1314 1236 1090 986 973 968 902 915 801 763 745 711 716 722 746 819 814 938 962 891 956 1073 1312 1506 1727 1734 1459 1219 914 851 725 670 636 538 506 450 478 738 954 1356 1321 1359 1120 1019 957 1177 645 592 443 402 318 310 395 421 458 408 407 445 421 375 343 352 368 428 438 219 167 188 290 316 443 444 604 687 761 726 615 459 512 877 724 643 -9999
203 216 216 156 327 213 330 251 287 404 423 403 507 364 403 437 431 514 538 519 698 678 859 1055 1053 1046 1062 1198 1034 1188 1261 1366 1345 1706 1764 1365 1508 1621 1535 1606 1630 1601 1668 1461 1460 1550 1815 1670 1489 1481 1456 1484 1552 1518 1527 1607 1712 1834 1688 1617 1630 1804 1927 2119 2034 1701 1623 1480 1247 1196 1102 1055 952 928 895 887 815 776 731 728 729 760 804 893 857 965 1040 1039 960 1123 1332 1563 1833 1777 1497 1190 927 862 742 671 562 529 501 451 472 695 914 885 852 1382 1235 770 782 955 620 563 480 369 323 261 405 360 325 367 342 417 437 376 347 340 353 414 395 397 286 204 287 222 368 413 634 721 639 689 516 406 567 703 653 480 -9999
194 135 190 154 317 197 253 214 224 305 331 353 362 510 428 387 431 478 488 459 545 724 877 1012 987 1036 1063 1123 974 1135 1292 1384 1456 1462 1298 1251 1343 1320 1586 1665 1626 1594 1451 1170 1169 1240 1588 1550 1523 1408 1429 1424 1399 1433 1483 1476 1561 1684 1626 1652 1714 1931 2193 2235 2112 1867 1644 1495 1224 1166 1055 1027 953 924 879 872 834 814 791 732 777 791 859 993 1000 1083 1141 1124 1011 1112 1325 1535 2000 1955 1313 1105 887 856 782 661 535 512 490 446 456 707 715 1101 1197 1112 1123 842 695 784 560 530 485 338 319 295 329 316 288 308 323 348 394 406 395 365 381 433 419 305 244 201 232 277 445 545 540 596 737 590 539 418 295 362 436 417 -9999
191 165 170 257 153 137 136 131 150 166 175 171 257 387 379 354 386 437 477 474 803 813 951 963 833 818 865 865 1137 1155 1247 1385 1373 1377 1212 1160 1064 1297 1554 1535 1592 1277 1331 1170 1153 1156 1381 1378 1510 1447 1190 1227 1379 1522 1439 1504 1525 1694 1637 1649 1719 2018 2284 2302 2164 1933 1796 1556 1304 1190 1095 1016 948 929 874 868 819 806 802 808 788 887 880 1043 1113 1366 1381 1503 1161 1060 1184 1468 2034 1775 1275 1073 827 757 663 629 492 493 481 436 494 545 632 840 1057 740 733 720 604 560 540 455 400 394 296 299 263 259 261 261 190 296 306 333 366 353 354 497 478 310 214 145 253 264 461 523 666 664 699 656 538 476 458 330 350 317 -9999
223 145 154 156 127 126 132 153 140 160 183 169 185 242 290 358 301 441 626 675 845 856 669 730 681 713 885 1020 1108 1165 1188 1189 1248 1091 1018 846 1147 1623 1594 1419 1514 1209 1318 984 1110 1436 1319 1328 1247 1154 1274 1434 1499 1434 1555 1588 1574 1608 1618 1656 1747 1903 2008 2196 2216 2043 1800 1599 1310 1216 1062 1029 964 944 902 881 854 834 810 908 795 928 926 1121 1256 1503 1436 1372 1152 1089 1200 1415 1542 1126 918 845 763 696 607 576 503 475 458 444 457 502 611 769 919 823 604 633 570 509 515 446 379 347 329 301 253 247 204 203 221 267 272 301 301 346 417 337 333 236 150 144 200 255 266 370 526 600 631 741 655 681 522 380 180 202 -9999
243 160 113 151 160 141 172 181 155 179 286 245 253 279 329 285 370 449 743 819 811 848 656 599 690 948 954 973 1095 971 1155 1146 1165 1070 974 963 1119 1567 1496 1403 1384 1118 1134 937 1144 1325 1301 1179 1334 1115 1207 1304 1566 1542 1617 1554 1653 1619 1657 1706 1748 1815 1905 2080 2104 2274 2162 1675 1298 1181 1067 1029 968 977 994 1010 989 935 902 877 923 995 1022 1230 1367 1737 1660 1261 937 934 1024 1137 1323 1423 774 750 622 568 517 503 487 473 456 402 428 483 450 563 566 566 534 454 405 407 380 363 287 265 261 248 240 214 192 196 192 212 220 282 289 361 405 257 329 187 125 164 200 261 194 293 541 495 592 634 543 537 500 402 323 114 -9999
208 209 108 171 180 213 255 293 331 536 526 523 559 608 632 374 401 782 724 773 552 414 372 517 825 891 891 908 898 1041 1103 899 1186 622 731 1171 1186 1247 1270 1383 1222 868 757 794 1164 1163 875 857 951 976 996 1225 1574 1721 1712 1746 1736 1733 1686 1700 1687 1736 1808 2078 2118 2247 2034 1584 1319 1229 1097 1046 1057 1062 1087 1122 1057 1024 952 963 960 993 1031 1273 1398 1377 1365 1109 1001 814 897 954 1052 1086 918 721 582 552 516 492 483 464 446 400 408 383 409 491 480 520 523 426 359 370 348 320 249 261 218 180 193 218 185 206 161 189 179 192 206 324 364 179 251 114 122 217 188 229 274 185 289 394 300 412 299 359 349 219 301 135 -9999
207 160 161 202 246 369 369 352 389 398 509 495 546 569 571 606 611 701 747 533 593 380 446 563 516 736 741 820 799 1007 922 873 935 670 736 1098 1275 1120 1337 1386 1118 879 657 1040 1102 1006 717 835 897 774 1021 1167 1589 1739 1803 1802 1967 1859 1753 1668 1668 1788 1895 2060 2234 2148 1712 1614 1389 1312 1164 1075 1192 1266 1429 1418 1388 1265 1148 1065 996 965 1022 1104 1134 1173 1059 925 858 790 721 707 755 744 695 651 538 518 486 478 472 440 431 406 394 363 363 375 366 355 335 411 360 349 345 326 256 219 183 189 202 201 186 191 193 190 182 158 191 297 294 156 134 97 190 221 254 246 166 164 288 292 236 315 191 161 203 120 154 99 -9999
124 137 137 202 398 368 391 296 350 200 328 414 502 522 474 553 451 568 551 347 339 273 493 366 722 619 797 856 908 903 790 889 657 1022 1069 1170 1141 1277 1076 1182 1099 931 704 843 1000 677 693 692 967 1130 1322 1477 1449 1491 1846 1789 1919 1873 1799 1682 1650 1767 1842 2116 2239 2028 1857 1704 1393 1327 1175 1093 1316 1380 1651 1648 1624 1436 1205 1083 1007 937 1017 1079 1019 1016 943 837 823 736 679 630 675 652 611 583 521 504 479 469 472 438 437 400 393 362 344 341 336 328 317 348 343 297 269 266 205 192 165 149 143 150 161 138 166 163 153 134 158 156 193 209 143 26 48 80 73 80 126 110 104 111 126 111 80 112 34 37 22 26 -9999
70 86 143 313 372 343 294 338 394 187 404 446 462 488 407 505 408 519 480 308 283 238 385 610 482 690 759 646 830 840 740 644 483 984 977 1095 892 1209 1056 1139 967 844 624 767 851 706 733 982 1211 1245 1266 1378 1567 1626 1740 1668 1618 1588 1718 1708 1612 1733 1857 2324 2456 2426 2062 1763 1461 1348 1242 1186 1380 1511 2048 2477 2152 1920 1287 1180 1070 937 891 902 918 885 889 774 728 685 660 547 547 539 511 509 478 467 453 445 446 438 409 387 382 357 350 336 330 312 311 325 298 271 255 248 221 172 156 161 153 144 149 152 139 145 128 124 141 141 173 179 85 23 24 46 72 61 86 71 109 72 69 93 83 37 20 18 20 20 -9999
246 285 170 266 121 174 342 290 314 322 373 390 406 435 386 434 432 440 462 280 170 221 372 373 534 582 427 664 703 636 632 410 607 616 759 755 1081 855 1104 1092 852 1013 858 621 864 621 575 635 987 944 1160 1265 1539 1575 1585 1562 1473 1474 1733 1471 1503 1728 1884 2548 2505 2406 2020 1588 1428 1361 1226 1202 1408 1554 2046 2498 2287 1878 1374 1185 1105 985 848 843 844 823 800 745 729 648 634 581 524 517 482 482 461 451 444 440 428 432 388 378 370 357 348 336 330 313 255 296 271 261 227 239 208 190 166 166 145 140 129 131 125 127 119 92 82 90 90 102 37 30 24 19 55 49 47 48 32 25 18 42 70 33 17 19 18 25 -9999
129 175 167 138 203 124 164 185 158 315 314 373 353 384 397 382 397 423 422 419 252 187 308 468 534 576 429 384 728 516 583 508 589 654 559 933 919 838 955 1033 838 886 856 481 536 471 834 1072 958 1206 1411 1558 1283 1458 1392 1490 1487 1426 1576 1267 1388 1548 1714 2022 1997 1811 1698 1445 1356 1305 1201 1214 1348 1478 1745 1784 1759 1617 1356 1256 1147 967 936 843 751 755 717 677 651 589 552 560 475 474 470 464 448 432 426 426 421 424 402 386 367 351 347 335 325 314 306 292 257 258 256 225 211 205 187 170 164 153 119 122 93 111 86 102 36 97 89 80 33 25 20 50 51 31 19 19 23 19 18 18 20 41 47 22 18 20 -9999
158 39 130 32 130 119 85 118 120 125 238 216 168 343 338 199 311 271 297 384 387 391 341 492 475 277 357 503 583 345 358 567 660 730 685 780 725 784 960 1016 768 759 942 776 503 589 968 1198 1342 1229 1282 1440 1317 1299 1461 1423 1288 1415 1384 1242 1322 1443 1468 1759 1765 1612 1569 1400 1318 1276 1228 1243 1334 1412 1584 1653 1584 1519 1363 1179 1076 1076 932 780 772 657 698 643 614 558 560 531 501 455 433 431 414 413 396 395 380 426 377 382 355 364 357 339 334 340 322 303 292 269 242 239 203 133 147 196 173 172 144 113 111 117 114 42 53 58 82 83 61 25 25 24 58 29 23 22 25 20 17 26 11 15 84 36 22 22 -9999
44 64 102 27 31 128 188 154 203 102 84 142 114 147 168 203 129 343 319 189 242 158 409 412 430 365 354 420 433 576 348 477 475 572 462 614 590 759 576 784 906 714 788 407 461 666 786 973 1049 984 1350 1205 1243 1238 1464 1288 950 1136 1151 1201 1170 1114 1216 1319 1354 1380 1356 1334 1298 1285 1303 1332 1283 1304 1417 1391 1291 1277 1405 1412 1414 1049 947 899 772 721 622 590 565 523 496 468 452 479 415 417 399 401 382 375 377 376 371 355 352 368 363 345 352 332 317 309 286 265 272 257 244 237 192 179 86 176 78 146 60 54 56 107 61 47 46 36 37 34 29 32 107 12 15 17 20 10 15 20 16 42 65 51 35 19 -9999
61 29 51 16 127 151 141 177 95 147 154 70 25 63 64 35 60 207 264 211 200 274 360 226 348 217 234 330 369 316 295 606 514 535 411 531 453 752 526 880 879 725 987 364 400 582 675 900 968 1221 1260 943 1265 1148 1358 1307 845 1144 1042 1275 1120 948 1059 1171 1215 1265 1312 1382 1327 1379 1363 1424 1285 1289 1369 1223 1147 1317 1296 1419 1347 1158 1047 850 868 778 681 625 637 534 563 527 513 487 441 434 419 384 371 359 349 345 331 317 321 343 364 359 356 335 342 327 309 286 276 272 247 263 238 237 214 165 159 160 134 119 118 126 111 52 39 36 32 29 22 25 19 13 13 11 19 19 17 14 16 58 131 144 138 62 -9999
7 12 85 105 71 71 141 103 66 70 59 82 103 164 160 202 148 12 239 65 240 259 278 289 69 212 167 249 235 330 228 504 355 267 506 575 336 371 500 494 436 546 696 230 457 831 861 778 873 768 751 858 990 1125 1229 1044 750 1028 1149 1103 1067 877 900 908 1024 1143 1212 1533 1536 1569 1561 1569 1466 1344 1339 1232 965 1027 1106 1197 1173 1237 1098 1113 978 844 718 635 572 514 528 527 492 493 463 441 424 392 345 354 332 311 296 305 315 338 374 366 358 371 328 292 318 317 275 266 277 291 260 227 220 215 85 172 152 140 37 91 122 50 42 37 68 109 277 160 142 16 20 13 8 9 11 23 13 82 230 62 145 186 -9999
23 55 81 78 59 85 96 122 31 13 87 98 55 132 160 185 176 44 140 205 236 240 177 242 122 99 209 224 168 197 471 415 306 232 371 377 281 433 356 339 357 333 279 248 527 926 901 741 731 691 679 859 1130 1303 984 978 672 1003 988 775 761 817 812 922 887 1217 1272 1579 1659 1783 1615 1651 1451 1371 1363 1233 889 861 882 830 959 1082 1252 1050 904 795 684 758 784 728 703 581 443 420 406 394 396 374 392 378 364 354 283 335 359 409 417 386 420 388 342 361 399 483 396 292 321 323 232 258 228 142 189 136 51 36 65 44 33 131 102 33 65 258 144 98 76 14 16 14 9 12 11 19 11 38 215 46 98 143 -9999
49 24 42 35 22 53 73 84 56 78 70 61 52 23 111 131 79 11 101 173 174 172 152 48 45 169 77 147 189 228 314 258 325 256 284 285 289 420 470 299 126 182 334 543 805 800 630 566 491 628 977 941 949 888 783 636 666 963 1030 686 591 563 600 881 991 1129 1307 1485 1534 1572 1697 1547 1520 1379 1238 1103 959 947 765 767 875 988 1109 1062 985 724 663 577 626 743 659 590 526 467 479 465 380 348 354 359 344 294 262 280 340 344 398 439 402 418 376 409 476 599 464 344 314 300 313 276 179 268 134 66 197 172 129 150 48 23 31 29 38 88 107 26 14 8 12 9 5 10 7 8 9 13 43 30 15 22 -9999
17 20 12 12 11 25 33 44 33 46 40 68 37 60 83 80 9 97 102 146 131 153 10 83 158 157 162 185 152 216 228 225 142 202 290 245 234 315 276 228 89 236 285 527 746 532 381 520 617 787 797 843 736 681 578 583 703 822 718 720 602 612 807 924 865 963 1051 1172 1034 1299 1474 1295 1244 1248 980 878 855 785 809 699 786 866 954 1152 1093 917 769 673 563 474 564 550 516 495 443 494 442 390 408 353 311 317 232 278 322 340 325 373 415 394 385 398 493 516 493 420 469 345 309 298 279 248 160 85 49 80 56 77 122 38 33 28 25 28 69 29 32 8 12 11 8 7 15 7 16 20 50 9 15 72 -9999
-9999 -9999 -9999 -9999 25 19 16 12 23 28 15 39 16 5 3 39 23 67 60 64 86 8 68 89 101 98 135 80 139 182 130 254 160 209 119 136 241 270 218 173 150 226 167 440 565 570 584 638 603 500 689 734 616 500 438 458 686 856 702 619 528 629 749 807 753 1070 1067 933 959 1320 1454 1292 1125 1126 1086 1052 907 850 747 665 899 952 1009 1066 1021 964 798 645 588 474 447 583 473 467 457 512 471 473 406 377 387 419 220 243 316 309 312 436 445 353 428 561 675 976 731 524 558 430 470 377 254 163 136 109 147 50 97 52 51 41 85 69 79 18 25 47 57 33 56 43 33 38 13 8 13 12 21 11 16 15 -9999
-9999 -9999 -9999 -9999 -9999 -9999 -9999 -9999 -9999 -9999 -9999 -9999 4 9 7 8 7 24 53 46 37 66 28 38 38 55 84 140 137 130 196 99 164 97 145 169 176 253 249 66 165 275 242 372 249 596 555 555 508 384 555 669 592 508 424 392 779 754 649 438 362 559 510 701 739 655 816 910 1109 1314 1363 1305 1048 1142 1093 937 809 794 651 671 752 753 824 931 964 903 823 788 694 496 359 327 449 286 327 379 347 324 256 370 513 438 236 233 292 293 366 429 425 410 426 546 649 780 895 496 487 439 489 515 207 284 228 235 115 107 109 120 61 88 43 22 20 17 19 31 27 16 14 11 58 15 11 7 8 15 14 9 8 17 -9999
-9999 -9999 -9999 -9999 -9999 -9999 -9999 -9999 -9999 -9999 -9999 -9999 -9999 -9999 -9999 -9999 -9999 -9999 -9999 31 11 15 9 9 17 24 17 63 40 84 87 30 80 79 73 143 108 165 147 68 233 176 240 265 281 467 433 498 283 466 467 533 593 498 379 387 672 585 610 407 344 344 442 459 544 686 676 887 1279 1110 1251 1348 1051 1054 1122 1047 798 746 756 615 706 688 744 937 960 865 848 829 777 482 495 398 361 394 351 320 403 431 339 291 418 388 269 215 269 306 335 332 334 364 342 462 500 622 782 658 615 572 490 430 501 525 427 293 128 224 206 249 169 137 81 28 23 54 55 21 20 18 51 16 19 9 20 10 4 13 7 11 13 9 -9999
-9999 -9999 -9999 -9999 -9999 -9999 -9999 -9999 -9999 -9999 -9999 -9999 -9999 -9999 -9999 -9999 -9999 -9999 -9999 -9999 -9999 6 4 6 8 25 9 23 54 17 69 58 58 67 21 79 87 129 124 54 167 186 212 220 184 273 244 397 306 433 424 422 501 398 300 254 553 313 270 212 325 598 775 921 1005 942 887 1084 1069 951 1011 1286 1025 914 1009 1093 1108 977 744 641 593 626 731 845 842 870 902 789 849 777 814 506 585 544 385 334 261 346 330 224 469 348 239 250 295 395 406 436 435 459 456 633 690 826 704 674 546 486 503 561 607 473 476 308 218 299 422 419 140 178 254 122 121 222 305 170 42 29 20 15 13 10 13 18 9 9 14 14 8 7 -9999
-9999 -9999 -9999 -9999 -9999 -9999 -9999 -9999 -9999 -9999 -9999 -9999 -9999 -9999 -9999 -9999 -9999 -9999 -9999 -9999 -9999 -9999 -9999 -9999 -9999 -9999 -9999 -9999 -9999 -9999 -9999 -9999 1 17 53 55 52 71 86 55 112 161 151 56 220 235 289 358 391 238 415 296 471 425 233 315 325 312 323 355 482 578 839 901 945 878 798 914 1047 838 947 1175 1201 939 1010 905 1074 1075 728 652 572 583 642 774 706 826 710 765 756 817 808 646 675 571 474 384 301 248 215 295 252 286 322 153 294 370 382 584 505 537 530 498 682 778 798 733 722 847 686 677 521 552 503 540 427 390 331 320 268 272 233 218 186 150 100 57 26 23 26 20 26 19 18 7 14 8 17 7 10 6 -9999
-9999 -9999 -9999 -9999 -9999 -9999 -9999 -9999 -9999 -9999 -9999 -9999 -9999 -9999 -9999 -9999 -9999 -9999 -9999 -9999 -9999 -9999 -9999 -9999 -9999 -9999 -9999 -9999 -9999 -9999 -9999 -9999 -9999 -9999 -9999 -9999 -9999 -9999 -9999 1 30 44 30 83 174 263 117 100 119 243 202 247 303 282 312 253 175 286 496 645 613 699 775 486 640 634 643 965 913 849 973 952 978 855 645 728 859 957 980 830 636 580 823 880 870 662 681 784 762 799 819 723 530 588 520 423 305 231 214 170 221 238 246 152 245 218 315 463 487 424 446 489 557 604 827 997 983 679 648 551 534 504 506 509 410 351 323 228 267 224 157 123 44 32 42 33 22 22 27 26 26 14 22 26 20 8 17 13 12 4 -9999
-9999 -9999 -9999 -9999 -9999 -9999 -9999 -9999 -9999 -9999 -9999 -9999 -9999 -9999 -9999 -9999 -9999 -9999 -9999 -9999 -9999 -9999 -9999 -9999 -9999 -9999 -9999 -9999 -9999 -9999 -9999 -9999 -9999 -9999 -9999 -9999 -9999 -9999 -9999 -9999 -9999 -9999 3 67 86 160 231 189 321 380 138 308 242 146 266 338 206 310 475 493 598 566 593 541 698 583 743 851 688 878 951 781 753 830 578 583 693 820 1074 1002 629 566 763 886 813 792 650 783 783 609 582 499 485 553 615 576 545 425 334 302 246 173 161 162 299 369 405 375 441 332 327 350 327 445 605 711 715 724 627 552 534 474 537 482 452 430 327 332 241 178 160 111 78 42 47 32 31 27 20 26 21 17 50 48 14 10 9 12 7 8 -9999
-9999 -9999 -9999 -9999 -9999 -9999 -9999 -9999 -9999 -9999 -9999 -9999 -9999 -9999 -9999 -9999 -9999 -9999 -9999 -9999 -9999 -9999 -9999 -9999 -9999 -9999 -9999 -9999 -9999 -9999 -9999 -9999 -9999 -9999 -9999 -9999 -9999 -9999 -9999 -9999 -9999 -9999 -9999 -9999 24 69 32 42 108 139 53 233 143 200 152 72 353 338 245 271 448 538 443 531 545 708 750 470 818 693 722 673 527 560 405 532 582 859 942 817 627 620 788 822 844 777 696 714 636 662 479 515 526 457 453 569 506 576 392 371 300 295 142 158 314 427 360 338 367 288 327 292 368 474 664 642 566 571 616 602 371 524 418 459 444 476 393 399 326 355 239 174 188 115 133 111 173 153 45 44 39 33 32 17 4 8 9 10 17 5 -9999
-9999 -9999 -9999 -9999 -9999 -9999 -9999 -9999 -9999 -9999 -9999 -9999 -9999 -9999 -9999 -9999 -9999 -9999 -9999 -9999 -9999 -9999 -9999 -9999 -9999 -9999 -9999 -9999 -9999 -9999 -9999 -9999 -9999 -9999 -9999 -9999 -9999 -9999 -9999 -9999 -9999 -9999 -9999 -9999 34 -9999 23 16 53 81 122 121 232 38 57 306 279 276 339 390 446 473 446 504 480 547 675 507 666 835 538 555 445 477 359 301 595 764 796 710 464 516 936 790 672 767 649 624 574 424 424 388 449 467 468 410 472 449 523 433 486 550 172 232 408 421 363 288 328 359 313 281 297 417 510 706 514 430 526 572 448 410 422 464 434 451 459 429 365 373 388 256 281 224 181 249 317 128 211 130 249 183 94 71 4 7 5 4 11 6 -9999
-9999 -9999 -9999 -9999 -9999 -9999 -9999 -9999 -9999 -9999 -9999 -9999 -9999 -9999 -9999 -9999 -9999 -9999 -9999 -9999 -9999 -9999 -9999 -9999 -9999 -9999 -9999 -9999 -9999 -9999 -9999 -9999 -9999 -9999 -9999 -9999 -9999 -9999 -9999 -9999 -9999 -9999 -9999 -9999 -9999 -9999 -9999 -9999 -9999 -9999 32 8 74 13 144 196 107 189 229 263 348 214 342 332 243 501 668 453 514 530 468 547 454 354 455 296 772 668 764 731 443 552 890 744 691 761 710 740 708 687 515 462 396 540 545 398 510 383 537 465 439 568 230 142 330 319 362 265 249 348 301 329 339 460 591 487 485 420 448 548 336 439 358 431 444 414 414 428 405 384 379 321 247 156 200 310 360 545 427 530 524 349 273 147 15 5 35 9 2 14 -9999
-9999 -9999 -9999 -9999 -9999 -9999 -9999 -9999 -9999 -9999 -9999 -9999 -9999 -9999 -9999 -9999 -9999 -9999 -9999 -9999 -9999 -9999 -9999 -9999 -9999 -9999 -9999 -9999 -9999 -9999 -9999 -9999 -9999 -9999 -9999 -9999 -9999 -9999 -9999 -9999 -9999 -9999 -9999 -9999 -9999 -9999 -9999 -9999 -9999 -9999 -9999 -9999 4 39 90 99 139 239 188 283 242 306 364 190 407 462 536 298 465 288 361 581 514 460 272 384 719 741 527 649 419 681 756 727 726 721 682 618 540 420 486 682 527 379 339 276 471 300 377 284 410 448 225 161 197 178 317 292 239 309 285 278 347 337 446 356 365 358 418 386 410 206 456 455 492 432 426 420 426 422 384 365 241 286 353 371 390 586 627 497 458 337 255 196 19 9 14 3 12 16 -9999
-9999 -9999 -9999 -9999 -9999 -9999 -9999 -9999 -9999 -9999 -9999 -9999 -9999 -9999 -9999 -9999 -9999 -9999 -9999 -9999 -9999 -9999 -9999 -9999 -9999 -9999 -9999 -9999 -9999 -9999 -9999 -9999 -9999 -9999 -9999 -9999 -9999 -9999 -9999 -9999 -9999 -9999 -9999 -9999 -9999 -9999 -9999 -9999 -9999 -9999 -9999 -9999 -9999 -9999 -9999 30 125 154 236 251 209 344 232 252 427 419 503 252 486 306 691 515 418 493 363 422 497 682 415 654 398 492 672 690 698 478 638 540 493 599 423 615 519 345 285 267 356 355 315 314 358 354 352 304 149 144 344 418 334 282 280 164 294 392 341 448 277 416 330 432 241 353 354 380 461 414 346 374 374 361 488 485 489 456 414 470 439 540 525 435 403 378 313 140 37 27 4 5 3 13 -9999
-9999 -9999 -9999 -9999 -9999 -9999 -9999 -9999 -9999 -9999 -9999 -9999 -9999 -9999 -9999 -9999 -9999 -9999 -9999 -9999 -9999 -9999 -9999 -9999 -9999 -9999 -9999 -9999 -9999 -9999 -9999 -9999 -9999 -9999 -9999 -9999 -9999 -9999 -9999 -9999 -9999 -9999 -9999 -9999 -9999 -9999 -9999 -9999 -9999 -9999 -9999 -9999 -9999 -9999 -9999 -9999 34 16 142 205 177 125 271 393 349 261 213 306 191 343 437 321 401 509 162 257 616 666 282 413 416 344 533 670 667 523 394 562 516 584 583 369 394 585 536 334 268 260 286 295 285 363 346 357 198 130 214 110 228 300 270 154 282 287 319 330 283 360 294 180 202 278 319 352 388 397 300 330 243 281 422 489 513 517 515 399 426 474 481 481 373 395 280 239 128 41 4 9 3 12 -9999
-9999 -9999 -9999 -9999 -9999 -9999 -9999 -9999 -9999 -9999 -9999 -9999 -9999 -9999 -9999 -9999 -9999 -9999 -9999 -9999 -9999 -9999 -9999 -9999 -9999 -9999 -9999 -9999 -9999 -9999 -9999 -9999 -9999 -9999 -9999 -9999 -9999 -9999 -9999 -9999 -9999 -9999 -9999 -9999 -9999 -9999 -9999 -9999 -9999 -9999 -9999 -9999 -9999 -9999 -9999 -9999 28 29 85 109 184 76 242 269 205 98 177 261 176 319 417 317 466 357 137 336 475 555 399 380 285 467 535 628 612 443 491 413 409 357 413 449 337 461 481 303 268 265 284 287 291 380 379 323 338 319 141 208 275 247 305 195 172 306 285 314 240 247 225 116 183 200 226 186 267 184 269 257 227 181 265 251 262 326 162 222 259 298 418 382 298 257 350 216 127 145 6 6 4 10 -9999
-9999 -9999 -9999 -9999 -9999 -9999 -9999 -9999 -9999 -9999 -9999 -9999 -9999 -9999 -9999 -9999 -9999 -9999 -9999 -9999 -9999 -9999 -9999 -9999 -9999 -9999 -9999 -9999 -9999 -9999 -9999 -9999 -9999 -9999 -9999 -9999 -9999 -9999 -9999 -9999 -9999 -9999 -9999 -9999 -9999 -9999 -9999 -9999 -9999 -9999 -9999 -9999 -9999 -9999 -9999 -9999 -9999 -9999 -9999 37 50 98 104 162 210 151 198 144 254 236 394 382 282 200 190 322 444 457 220 392 208 406 437 579 497 449 429 492 521 494 336 397 283 433 416 293 263 273 375 330 275 302 220 306 291 313 92 315 272 244 255 218 149 221 194 224 276 256 164 195 204 225 178 195 220 183 209 216 187 196 175 202 183 221 204 169 222 227 355 227 306 323 316 264 234 166 13 3 3 12 -9999
-9999 -9999 -9999 -9999 -9999 -9999 -9999 -9999 -9999 -9999 -9999 -9999 -9999 -9999 -9999 -9999 -9999 -9999 -9999 -9999 -9999 -9999 -9999 -9999 -9999 -9999 -9999 -9999 -9999 -9999 -9999 -9999 -9999 -9999 -9999 -9999 -9999 -9999 -9999 -9999 -9999 -9999 -9999 -9999 -9999 -9999 -9999 -9999 -9999 -9999 -9999 -9999 -9999 -9999 -9999 -9999 -9999 -9999 -9999 -9999 41 31 87 142 188 163 54 206 323 259 353 313 292 137 178 238 462 457 250 538 203 265 331 399 479 501 496 355 390 480 380 405 364 297 302 258 253 247 252 266 272 222 93 127 199 187 75 246 246 239 231 223 236 174 160 177 111 163 175 172 169 159 157 191 178 164 180 147 126 137 160 163 133 176 225 99 167 265 234 144 249 306 166 217 242 105 46 12 0 2 -9999
-9999 -9999 -9999 -9999 -9999 -9999 -9999 -9999 -9999 -9999 -9999 -9999 -9999 -9999 -9999 -9999 -9999 -9999 -9999 -9999 -9999 -9999 -9999 -9999 -9999 -9999 -9999 -9999 -9999 -9999 -9999 -9999 -9999 -9999 -9999 -9999 -9999 -9999 -9999 -9999 -9999 -9999 -9999 -9999 -9999 -9999 -9999 -9999 -9999 -9999 -9999 -9999 -9999 -9999 -9999 -9999 -9999 -9999 -9999 -9999 -9999 12 11 16 36 21 50 69 139 226 218 167 181 70 180 114 280 304 274 351 123 199 483 436 342 490 506 425 239 325 462 452 250 266 269 272 255 267 255 271 265 265 114 90 105 113 63 218 263 246 254 198 190 221 192 182 93 158 146 144 145 139 123 141 142 123 136 135 123 132 149 100 145 125 134 120 113 49 146 134 95 240 229 208 258 212 30 44 2 2 -9999
-9999 -9999 -9999 -9999 -9999 -9999 -9999 -9999 -9999 -9999 -9999 -9999 -9999 -9999 -9999 -9999 -9999 -9999 -9999 -9999 -9999 -9999 -9999 -9999 -9999 -9999 -9999 -9999 -9999 -9999 -9999 -9999 -9999 -9999 -9999 -9999 -9999 -9999 -9999 -9999 -9999 -9999 -9999 -9999 -9999 -9999 -9999 -9999 -9999 -9999 -9999 -9999 -9999 -9999 -9999 -9999 -9999 -9999 -9999 -9999 -9999 10 8 10 11 19 24 82 133 122 156 223 213 86 98 151 168 94 288 436 164 181 318 433 455 404 381 389 392 154 299 315 292 221 230 294 254 247 255 244 243 263 244 256 136 118 106 99 204 216 234 196 186 198 154 109 131 141 129 110 162 135 153 147 128 103 142 106 128 126 133 108 65 82 76 64 79 43 89 97 123 149 214 125 186 195 120 78 10 2 -9999
-9999 -9999 -9999 -9999 -9999 -9999 -9999 -9999 -9999 -9999 -9999 -9999 -9999 -9999 -9999 -9999 -9999 -9999 -9999 -9999 -9999 -9999 -9999 -9999 -9999 -9999 -9999 -9999 -9999 -9999 -9999 -9999 -9999 -9999 -9999 -9999 -9999 -9999 -9999 -9999 -9999 -9999 -9999 -9999 -9999 -9999 -9999 -9999 -9999 -9999 -9999 -9999 -9999 -9999 -9999 -9999 -9999 -9999 -9999 -9999 -9999 5 11 10 6 11 5 21 57 101 45 149 65 28 148 181 53 206 308 374 146 116 263 358 377 407 400 360 283 173 202 279 215 213 261 273 243 269 249 239 250 242 252 241 86 129 322 302 242 249 265 179 182 193 178 149 121 119 135 135 148 127 151 143 98 137 129 124 126 105 38 28 7 7 9 25 9 16 17 9 46 38 21 165 182 154 168 195 85 33 -9999
-9999 -9999 -9999 -9999 -9999 -9999 -9999 -9999 -9999 -9999 -9999 -9999 -9999 -9999 -9999 -9999 -9999 -9999 -9999 -9999 -9999 -9999 -9999 -9999 -9999 -9999 -9999 -9999 -9999 -9999 -9999 -9999 -9999 -9999 -9999 -9999 -9999 -9999 -9999 -9999 -9999 -9999 -9999 -9999 -9999 -9999 -9999 -9999 -9999 -9999 -9999 -9999 -9999 -9999 -9999 -9999 -9999 -9999 -9999 -9999 -9999 -9999 -9999 -9999 -9999 -9999 4 6 8 35 40 61 81 77 163 74 132 238 294 269 128 114 262 234 290 274 262 210 299 177 274 221 230 217 204 201 262 255 265 266 203 61 134 205 272 255 282 234 208 266 188 197 195 174 187 153 98 77 121 118 155 126 135 154 121 152 142 114 111 87 19 20 7 10 6 22 10 19 14 12 9 32 28 31 96 43 164 149 151 30 -9999
-9999 -9999 -9999 -9999 -9999 -9999 -9999 -9999 -9999 -9999 -9999 -9999 -9999 -9999 -9999 -9999 -9999 -9999 -9999 -9999 -9999 -9999 -9999 -9999 -9999 -9999 -9999 -9999 -9999 -9999 -9999 -9999 -9999 -9999 -9999 -9999 -9999 -9999 -9999 -9999 -9999 -9999 -9999 -9999 -9999 -9999 -9999 -9999 -9999 -9999 -9999 -9999 -9999 -9999 -9999 -9999 -9999 -9999 -9999 -9999 -9999 -9999 -9999 -9999 -9999 -9999 -9999 -9999 -9999 4 29 61 55 55 99 35 177 237 298 301 119 98 249 160 144 178 270 274 224 217 179 227 227 204 187 186 248 271 308 244 149 201 196 209 245 301 186 167 177 175 200 189 162 148 138 129 75 112 173 151 135 120 129 96 112 130 99 36 19 15 30 12 17 17 17 11 9 18 11 13 13 3 13 -9999 -9999 -9999 39 56 110 127 -9999
-9999 -9999 -9999 -9999 -9999 -9999 -9999 -9999 -9999 -9999 -9999 -9999 -9999 -9999 -9999 -9999 -9999 -9999 -9999 -9999 -9999 -9999 -9999 -9999 -9999 -9999 -9999 -9999 -9999 -9999 -9999 -9999 -9999 -9999 -9999 -9999 -9999 -9999 -9999 -9999 -9999 -9999 -9999 -9999 -9999 -9999 -9999 -9999 -9999 -9999 -9999 -9999 -9999 -9999 -9999 -9999 -9999 -9999 -9999 -9999 -9999 -9999 -9999 -9999 -9999 -9999 -9999 -9999 -9999 -9999 -9999 -9999 -9999 27 21 103 176 223 218 212 129 139 234 226 177 160 72 184 88 85 170 188 200 185 171 234 267 224 242 183 229 186 185 257 266 243 167 118 169 195 168 196 172 129 94 94 113 131 139 142 138 117 94 105 122 103 72 45 21 6 18 17 5 9 -9999 -9999 -9999 -9999 -9999 7 14 7 5 -9999 -9999 -9999 -9999 -9999 37 40 -9999
-9999 -9999 -9999 -9999 -9999 -9999 -9999 -9999 -9999 -9999 -9999 -9999 -9999 -9999 -9999 -9999 -9999 -9999 -9999 -9999 -9999 -9999 -9999 -9999 -9999 -9999 -9999 -9999 -9999 -9999 -9999 -9999 -9999 -9999 -9999 -9999 -9999 -9999 -9999 -9999 -9999 -9999 -9999 -9999 -9999 -9999 -9999 -9999 -9999 -9999 -9999 -9999 -9999 -9999 -9999 -9999 -9999 -9999 -9999 -9999 -9999 -9999 -9999 -9999 -9999 -9999 -9999 -9999 -9999 -9999 -9999 -9999 -9999 9 67 89 129 186 195 176 15 118 224 114 75 212 33 58 101 53 136 156 167 216 191 202 202 170 197 113 176 194 235 171 246 221 217 164 195 191 158 196 168 132 109 112 124 102 112 104 110 108 85 95 83 43 71 24 17 -9999 -9999 -9999 -9999 -9999 -9999 -9999 -9999 -9999 -9999 -9999 -9999 -9999 -9999 -9999 -9999 -9999 -9999 -9999 -9999 -9999 -9999
-9999 -9999 -9999 -9999 -9999 -9999 -9999 -9999 -9999 -9999 -9999 -9999 -9999 -9999 -9999 -9999 -9999 -9999 -9999 -9999 -9999 -9999 -9999 -9999 -9999 -9999 -9999 -9999 -9999 -9999 -9999 -9999 -9999 -9999 -9999 -9999 -9999 -9999 -9999 -9999 -9999 -9999 -9999 -9999 -9999 -9999 -9999 -9999 -9999 -9999 -9999 -9999 -9999 -9999 -9999 -9999 -9999 -9999 -9999 -9999 -9999 -9999 -9999 -9999 -9999 -9999 -9999 -9999 -9999 -9999 -9999 -9999 -9999 27 57 54 122 118 138 148 138 138 145 15 23 133 42 63 77 95 72 157 115 152 147 157 164 99 131 30 154 171 170 156 196 171 167 199 163 157 137 147 155 114 67 121 122 109 103 114 117 96 87 74 23 28 34 25 -9999 -9999 -9999 -9999 -9999 -9999 -9999 -9999 -9999 -9999 -9999 -9999 -9999 68 19 -9999 -9999 -9999 -9999 -9999 -9999 -9999 -9999
-9999 -9999 -9999 -9999 -9999 -9999 -9999 -9999 -9999 -9999 -9999 -9999 -9999 -9999 -9999 -9999 -9999 -9999 -9999 -9999 -9999 -9999 -9999 -9999 -9999 -9999 -9999 -9999 -9999 -9999 -9999 -9999 -9999 -9999 -9999 -9999 -9999 -9999 -9999 -9999 -9999 -9999 -9999 -9999 -9999 -9999 -9999 -9999 -9999 -9999 -9999 -9999 -9999 -9999 -9999 -9999 -9999 -9999 -9999 -9999 -9999 -9999 -9999 -9999 -9999 -9999 -9999 -9999 -9999 -9999 -9999 -9999 -9999 24 30 59 55 61 73 65 69 24 12 12 43 137 10 30 47 49 57 76 84 99 120 114 110 115 114 104 134 143 135 132 125 168 88 76 92 88 119 145 154 123 158 152 115 129 120 106 104 96 72 120 56 37 7 14 10 -9999 -9999 -9999 -9999 -9999 -9999 -9999 -9999 -9999 -9999 -9999 -9999 103 147 -9999 -9999 -9999 -9999 -9999 -9999 -9999 -9999
-9999 -9999 -9999 -9999 -9999 -9999 -9999 -9999 -9999 -9999 -9999 -9999 -9999 -9999 -9999 -9999 -9999 -9999 -9999 -9999 -9999 -9999 -9999 -9999 -9999 -9999 -9999 -9999 -9999 -9999 -9999 -9999 -9999 -9999 -9999 -9999 -9999 -9999 -9999 -9999 -9999 -9999 -9999 -9999 -9999 -9999 -9999 -9999 -9999 -9999 -9999 -9999 -9999 -9999 -9999 -9999 -9999 -9999 -9999 -9999 -9999 -9999 -9999 -9999 -9999 -9999 -9999 -9999 -9999 -9999 -9999 -9999 -9999 -9999 -9999 -9999 -9999 -9999 -9999 -9999 -9999 -9999 -9999 -9999 -9999 -9999 -9999 -9999 11 9 13 39 70 59 88 98 115 45 103 68 104 116 116 125 119 92 76 83 113 115 116 139 135 100 149 142 124 109 115 121 119 101 114 52 44 12 11 5 -9999 -9999 -9999 -9999 -9999 -9999 -9999 -9999 -9999 -9999 -9999 -9999 -9999 -9999 -9999 -9999 -9999 -9999 -9999 -9999 -9999 -9999 -9999
-9999 -9999 -9999 -9999 -9999 -9999 -9999 -9999 -9999 -9999 -9999 -9999 -9999 -9999 -9999 -9999 -9999 -9999 -9999 -9999 -9999 -9999 -9999 -9999 -9999 -9999 -9999 -9999 -9999 -9999 -9999 -9999 -9999 -9999 -9999 -9999 -9999 -9999 -9999 -9999 -9999 -9999 -9999 -9999 -9999 -9999 -9999 -9999 -9999 -9999 -9999 -9999 -9999 -9999 -9999 -9999 -9999 -9999 -9999 -9999 -9999 -9999 -9999 -9999 -9999 -9999 -9999 -9999 -9999 -9999 -9999 -9999 -9999 -9999 -9999 -9999 -9999 -9999 -9999 -9999 -9999 -9999 -9999 -9999 -9999 -9999 -9999 -9999 -9999 -9999 11 27 37 46 41 12 67 100 120 54 87 55 39 93 74 46 71 17 71 66 107 115 97 101 33 130 127 133 128 90 108 112 106 104 89 58 59 55 33 -9999 -9999 -9999 -9999 -9999 -9999 -9999 -9999 -9999 -9999 -9999 -9999 -9999 -9999 -9999 -9999 -9999 -9999 -9999 -9999 -9999 -9999
-9999 -9999 -9999 -9999 -9999 -9999 -9999 -9999 -9999 -9999 -9999 -9999 -9999 -9999 -9999 -9999 -9999 -9999 -9999 -9999 -9999 -9999 -9999 -9999 -9999 -9999 -9999 -9999 -9999 -9999 -9999 -9999 -9999 -9999 -9999 -9999 -9999 -9999 -9999 -9999 -9999 -9999 -9999 -9999 -9999 -9999 -9999 -9999 -9999 -9999 -9999 -9999 -9999 -9999 -9999 -9999 -9999 -9999 -9999 -9999 -9999 -9999 -9999 -9999 -9999 -9999 -9999 -9999 -9999 -9999 -9999 -9999 -9999 -9999 -9999 -9999 -9999 -9999 -9999 -9999 -9999 -9999 -9999 -9999 -9999 -9999 -9999 -9999 -9999 -9999 -9999 12 22 40 36 35 42 51 47 56 25 33 37 70 33 8 45 33 59 84 64 78 102 78 122 129 101 110 115 88 92 108 96 97 100 75 43 50 57 -9999 -9999 -9999 -9999 -9999 -9999 -9999 -9999 -9999 -9999 -9999 -9999 -9999 -9999 -9999 -9999 -9999 -9999 -9999 -9999 -9999 -9999
-9999 -9999 -9999 -9999 -9999 -9999 -9999 -9999 -9999 -9999 -9999 -9999 -9999 -9999 -9999 -9999 -9999 -9999 -9999 -9999 -9999 -9999 -9999 -9999 -9999 -9999 -9999 -9999 -9999 -9999 -9999 -9999 -9999 -9999 -9999 -9999 -9999 -9999 -9999 -9999 -9999 -9999 -9999 -9999 -9999 -9999 -9999 -9999 -9999 -9999 -9999 -9999 -9999 -9999 -9999 -9999 -9999 -9999 -9999 -9999 -9999 -9999 -9999 -9999 -9999 -9999 -9999 -9999 -9999 -9999 -9999 -9999 -9999 -9999 -9999 -9999 -9999 -9999 -9999 -9999 -9999 -9999 -9999 -9999 -9999 -9999 -9999 -9999 -9999 -9999 -9999 -9999 -9999 -9999 -9999 -9999 -9999 7 14 9 48 56 27 29 14 33 32 32 16 35 22 31 76 95 69 108 86 112 105 58 77 87 84 59 43 34 44 46 37 -9999 -9999 -9999 -9999 -9999 -9999 -9999 -9999 -9999 -9999 -9999 -9999 -9999 -9999 -9999 -9999 -9999 -9999 -9999 -9999 -9999 -9999
-9999 -9999 -9999 -9999 -9999 -9999 -9999 -9999 -9999 -9999 -9999 -9999 -9999 -9999 -9999 -9999 -9999 -9999 -9999 -9999 -9999 -9999 -9999 -9999 -9999 -9999 -9999 -9999 -9999 -9999 -9999 -9999 -9999 -9999 -9999 -9999 -9999 -9999 -9999 -9999 -9999 -9999 -9999 -9999 -9999 -9999 -9999 -9999 -9999 -9999 -9999 -9999 -9999 -9999 -9999 -9999 -9999 -9999 -9999 -9999 -9999 -9999 -9999 -9999 -9999 -9999 -9999 -9999 -9999 -9999 -9999 -9999 -9999 -9999 -9999 -9999 -9999 -9999 -9999 -9999 -9999 -9999 -9999 -9999 -9999 -9999 -9999 -9999 -9999 -9999 -9999 -9999 -9999 -9999 -9999 -9999 -9999 -9999 -9999 -9999 10 17 6 19 43 19 27 18 26 8 61 61 26 51 59 89 89 93 92 83 45 69 61 31 27 18 28 29 -9999 -9999 -9999 -9999 -9999 -9999 -9999 -9999 -9999 -9999 -9999 -9999 -9999 -9999 -9999 -9999 -9999 -9999 -9999 -9999 -9999 -9999 -9999
-9999 -9999 -9999 -9999 -9999 -9999 -9999 -9999 -9999 -9999 -9999 -9999 -9999 -9999 -9999 -9999 -9999 -9999 -9999 -9999 -9999 -9999 -9999 -9999 -9999 -9999 -9999 -9999 -9999 -9999 -9999 -9999 -9999 -9999 -9999 -9999 -9999 -9999 -9999 -9999 -9999 -9999 -9999 -9999 -9999 -9999 -9999 -9999 -9999 -9999 -9999 -9999 -9999 -9999 -9999 -9999 -9999 -9999 -9999 -9999 -9999 -9999 -9999 -9999 -9999 -9999 -9999 -9999 -9999 -9999 -9999 -9999 -9999 -9999 -9999 -9999 -9999 -9999 -9999 -9999 -9999 -9999 -9999 -9999 -9999 -9999 -9999 -9999 -9999 -9999 -9999 -9999 -9999 -9999 -9999 -9999 -9999 -9999 -9999 -9999 -9999 -9999 -9999 -9999 -9999 -9999 -9999 -9999 8 17 11 11 21 33 29 56 37 67 80 80 33 39 36 20 8 18 6 17 -9999 -9999 -9999 -9999 -9999 -9999 -9999 -9999 -9999 -9999 -9999 -9999 -9999 -9999 -9999 -9999 -9999 -9999 -9999 -9999 -9999 -9999 -9999
-9999 -9999 -9999 -9999 -9999 -9999 -9999 -9999 -9999 -9999 -9999 -9999 -9999 -9999 -9999 -9999 -9999 -9999 -9999 -9999 -9999 -9999 -9999 -9999 -9999 -9999 -9999 -9999 -9999 -9999 -9999 -9999 -9999 -9999 -9999 -9999 -9999 -9999 -9999 -9999 -9999 -9999 -9999 -9999 -9999 -9999 -9999 -9999 -9999 -9999 -9999 -9999 -9999 -9999 -9999 -9999 -9999 -9999 -9999 -9999 -9999 -9999 -9999 -9999 -9999 -9999 -9999 -9999 -9999 -9999 -9999 -9999 -9999 -9999 -9999 -9999 -9999 -9999 -9999 -9999 -9999 -9999 -9999 -9999 -9999 -9999 -9999 -9999 -9999 -9999 -9999 -9999 -9999 -9999 -9999 -9999 -9999 -9999 -9999 -9999 -9999 -9999 -9999 -9999 -9999 -9999 -9999 -9999 -9999 -9999 -9999 -9999 10 17 25 36 24 27 21 16 24 15 9 14 -9999 -9999 -9999 -9999 -9999 -9999 -9999 -9999 -9999 -9999 -9999 -9999 -9999 -9999 -9999 -9999 -9999 -9999 -9999 -9999 -9999 -9999 -9999 -9999 -9999 -9999 -9999
-9999 -9999 -9999 -9999 -9999 -9999 -9999 -9999 -9999 -9999 -9999 -9999 -9999 -9999 -9999 -9999 -9999 -9999 -9999 -9999 -9999 -9999 -9999 -9999 -9999 -9999 -9999 -9999 -9999 -9999 -9999 -9999 -9999 -9999 -9999 -9999 -9999 -9999 -9999 -9999 -9999 -9999 -9999 -9999 -9999 -9999 -9999 -9999 -9999 -9999 -9999 -9999 -9999 -9999 -9999 -9999 -9999 -9999 -9999 -9999 -9999 -9999 -9999 -9999 -9999 -9999 -9999 -9999 -9999 -9999 -9999 -9999 -9999 -9999 -9999 -9999 -9999 -9999 -9999 -9999 -9999 -9999 -9999 -9999 -9999 -9999 -9999 -9999 -9999 -9999 -9999 -9999 -9999 -9999 -9999 -9999 -9999 -9999 -9999 -9999 -9999 -9999 -9999 -9999 -9999 -9999 -9999 -9999 -9999 -9999 -9999 -9999 -9999 -9999 -9999 -9999 -9999 -9999 -9999 -9999 -9999 -9999 11 10 -9999 -9999 -9999 -9999 -9999 -9999 -9999 -9999 -9999 -9999 -9999 -9999 -9999 -9999 -9999 -9999 -9999 -9999 -9999 -9999 -9999 -9999 -9999 -9999 -9999 -9999 -9999
-9999 -9999 -9999 -9999 -9999 -9999 -9999 -9999 -9999 -9999 -9999 -9999 -9999 -9999 -9999 -9999 -9999 -9999 -9999 -9999 -9999 -9999 -9999 -9999 -9999 -9999 -9999 -9999 -9999 -9999 -9999 -9999 -9999 -9999 -9999 -9999 -9999 -9999 -9999 -9999 -9999 -9999 -9999 -9999 -9999 -9999 -9999 -9999 -9999 -9999 -9999 -9999 -9999 -9999 -9999 -9999 -9999 -9999 -9999 -9999 -9999 -9999 -9999 -9999 -9999 -9999 -9999 -9999 -9999 -9999 -9999 -9999 -9999 -9999 -9999 -9999 -9999 -9999 -9999 -9999 -9999 -9999 -9999 -9999 -9999 -9999 -9999 -9999 -9999 -9999 -9999 -9999 -9999 -9999 -9999 -9999 -9999 -9999 -9999 -9999 -9999 -9999 -9999 -9999 -9999 -9999 -9999 -9999 -9999 -9999 -9999 -9999 -9999 -9999 -9999 -9999 -9999 -9999 -9999 -9999 -9999 -9999 -9999 -9999 -9999 -9999 -9999 -9999 -9999 -9999 -9999 -9999 -9999 -9999 -9999 -9999 -9999 -9999 -9999 -9999 -9999 -9999 -9999 -9999 -9999 -9999 -9999 -9999 -9999 -9999 -9999
-9999 -9999 -9999 -9999 -9999 -9999 -9999 -9999 -9999 -9999 -9999 -9999 -9999 -9999 -9999 -9999 -9999 -9999 -9999 -9999 -9999 -9999 -9999 -9999 -9999 -9999 -9999 -9999 -9999 -9999 -9999 -9999 -9999 -9999 -9999 -9999 -9999 -9999 -9999 -9999 -9999 -9999 -9999 -9999 -9999 -9999 -9999 -9999 -9999 -9999 -9999 -9999 -9999 -9999 -9999 -9999 -9999 -9999 -9999 -9999 -9999 -9999 -9999 -9999 -9999 -9999 -9999 -9999 -9999 -9999 -9999 -9999 -9999 -9999 -9999 -9999 -9999 -9999 -9999 -9999 -9999 -9999 -9999 -9999 -9999 -9999 -9999 -9999 -9999 -9999 -9999 -9999 -9999 -9999 -9999 -9999 -9999 -9999 -9999 -9999 -9999 -9999 -9999 -9999 -9999 -9999 -9999 -9999 -9999 -9999 -9999 -9999 -9999 -9999 -9999 -9999 -9999 -9999 -9999 -9999 -9999 -9999 -9999 -9999 -9999 -9999 -9999 -9999 -9999 -9999 -9999 -9999 -9999 -9999 -9999 -9999 -9999 -9999 -9999 -9999 -9999 -9999 -9999 -9999 -9999 -9999 -9999 -9999 -9999 -9999 -9999
-9999 -9999 -9999 -9999 -9999 -9999 -9999 -9999 -9999 -9999 -9999 -9999 -9999 -9999 -9999 -9999 -9999 -9999 -9999 -9999 -9999 -9999 -9999 -9999 -9999 -9999 -9999 -9999 -9999 -9999 -9999 -9999 -9999 -9999 -9999 -9999 -9999 -9999 -9999 -9999 -9999 -9999 -9999 -9999 -9999 -9999 -9999 -9999 -9999 -9999 -9999 -9999 -9999 -9999 -9999 -9999 -9999 -9999 -9999 -9999 -9999 -9999 -9999 -9999 -9999 -9999 -9999 -9999 -9999 -9999 -9999 -9999 -9999 -9999 -9999 -9999 -9999 -9999 -9999 -9999 -9999 -9999 -9999 -9999 -9999 -9999 -9999 -9999 -9999 -9999 -9999 -9999 -9999 -9999 -9999 -9999 -9999 -9999 -9999 -9999 -9999 -9999 -9999 -9999 -9999 -9999 -9999 -9999 -9999 -9999 -9999 -9999 -9999 -9999 -9999 -9999 -9999 -9999 -9999 -9999 -9999 -9999 -9999 -9999 -9999 -9999 -9999 -9999 -9999 -9999 -9999 -9999 -9999 -9999 -9999 -9999 -9999 -9999 -9999 -9999 -9999 -9999 -9999 -9999 -9999 -9999 -9999 -9999 -9999 -9999 -9999
-9999 -9999 -9999 -9999 -9999 -9999 -9999 -9999 -9999 -9999 -9999 -9999 -9999 -9999 -9999 -9999 -9999 -9999 -9999 -9999 -9999 -9999 -9999 -9999 -9999 -9999 -9999 -9999 -9999 -9999 -9999 -9999 -9999 -9999 -9999 -9999 -9999 -9999 -9999 -9999 -9999 -9999 -9999 -9999 -9999 -9999 -9999 -9999 -9999 -9999 -9999 -9999 -9999 -9999 -9999 -9999 -9999 -9999 -9999 -9999 -9999 -9999 -9999 -9999 -9999 -9999 -9999 -9999 -9999 -9999 -9999 -9999 -9999 -9999 -9999 -9999 -9999 -9999 -9999 -9999 -9999 -9999 -9999 -9999 -9999 -9999 -9999 -9999 -9999 -9999 -9999 -9999 -9999 -9999 -9999 -9999 -9999 -9999 -9999 -9999 -9999 -9999 -9999 -9999 -9999 -9999 -9999 -9999 -9999 -9999 -9999 -9999 -9999 -9999 -9999 -9999 -9999 -9999 -9999 -9999 -9999 -9999 -9999 -9999 -9999 -9999 -9999 -9999 -9999 -9999 -9999 -9999 -9999 -9999 -9999 -9999 -9999 -9999 -9999 -9999 -9999 -9999 -9999 -9999 -9999 -9999 -9999 -9999 -9999 -9999 -9999
-9999 -9999 -9999 -9999 -9999 -9999 -9999 -9999 -9999 -9999 -9999 -9999 -9999 -9999 -9999 -9999 -9999 -9999 -9999 -9999 -9999 -9999 -9999 -9999 -9999 -9999 -9999 -9999 -9999 -9999 -9999 -9999 -9999 -9999 -9999 -9999 -9999 -9999 -9999 -9999 -9999 -9999 -9999 -9999 -9999 -9999 -9999 -9999 -9999 -9999 -9999 -9999 -9999 -9999 -9999 -9999 -9999 -9999 -9999 -9999 -9999 -9999 -9999 -9999 -9999 -9999 -9999 -9999 -9999 -9999 -9999 -9999 -9999 -9999 -9999 -9999 -9999 -9999 -9999 -9999 -9999 -9999 -9999 -9999 -9999 -9999 -9999 -9999 -9999 -9999 -9999 -9999 -9999 -9999 -9999 -9999 -9999 -9999 -9999 -9999 -9999 -9999 -9999 -9999 -9999 -9999 -9999 -9999 -9999 -9999 -9999 -9999 -9999 -9999 -9999 -9999 -9999 -9999 -9999 -9999 -9999 -9999 -9999 -9999 -9999 -9999 -9999 -9999 -9999 -9999 -9999 -9999 -9999 -9999 -9999 -9999 -9999 -9999 -9999 -9999 -9999 -9999 -9999 -9999 -9999 -9999 -9999 -9999 -9999 -9999 -9999
-9999 -9999 -9999 -9999 -9999 -9999 -9999 -9999 -9999 -9999 -9999 -9999 -9999 -9999 -9999 -9999 -9999 -9999 -9999 -9999 -9999 -9999 -9999 -9999 -9999 -9999 -9999 -9999 -9999 -9999 -9999 -9999 -9999 -9999 -9999 -9999 -9999 -9999 -9999 -9999 -9999 -9999 -9999 -9999 -9999 -9999 -9999 -9999 -9999 -9999 -9999 -9999 -9999 -9999 -9999 -9999 -9999 -9999 -9999 -9999 -9999 -9999 -9999 -9999 -9999 -9999 -9999 -9999 -9999 -9999 -9999 -9999 -9999 -9999 -9999 -9999 -9999 -9999 -9999 -9999 -9999 -9999 -9999 -9999 -9999 -9999 -9999 -9999 -9999 -9999 -9999 -9999 -9999 -9999 -9999 -9999 -9999 -9999 -9999 -9999 -9999 -9999 -9999 -9999 -9999 -9999 -9999 -9999 -9999 -9999 -9999 -9999 -9999 -9999 -9999 -9999 -9999 -9999 -9999 -9999 -9999 -9999 -9999 -9999 -9999 -9999 -9999 -9999 -9999 -9999 -9999 -9999 -9999 -9999 -9999 -9999 -9999 -9999 -9999 -9999 -9999 -9999 -9999 -9999 -9999 -9999 -9999 -9999 -9999 -9999 -9999
-9999 -9999 -9999 -9999 -9999 -9999 -9999 -9999 -9999 -9999 -9999 -9999 -9999 -9999 -9999 -9999 -9999 -9999 -9999 -9999 -9999 -9999 -9999 -9999 -9999 -9999 -9999 -9999 -9999 -9999 -9999 -9999 -9999 -9999 -9999 -9999 -9999 -9999 -9999 -9999 -9999 -9999 -9999 -9999 -9999 -9999 -9999 -9999 -9999 -9999 -9999 -9999 -9999 -9999 -9999 -9999 -9999 -9999 -9999 -9999 -9999 -9999 -9999 -9999 -9999 -9999 -9999 -9999 -9999 -9999 -9999 -9999 -9999 -9999 -9999 -9999 -9999 -9999 -9999 -9999 -9999 -9999 -9999 -9999 -9999 -9999 -9999 -9999 -9999 -9999 -9999 -9999 -9999 -9999 -9999 -9999 -9999 -9999 -9999 -9999 -9999 -9999 -9999 -9999 -9999 -9999 -9999 -9999 -9999 -9999 -9999 -9999 -9999 -9999 -9999 -9999 -9999 -9999 -9999 -9999 -9999 -9999 -9999 -9999 -9999 -9999 -9999 -9999 -9999 -9999 -9999 -9999 -9999 -9999 -9999 -9999 -9999 -9999 -9999 -9999 -9999 -9999 -9999 -9999 -9999 -9999 -9999 -9999 -9999 -9999 -9999
-9999 -9999 -9999 -9999 -9999 -9999 -9999 -9999 -9999 -9999 -9999 -9999 -9999 -9999 -9999 -9999 -9999 -9999 -9999 -9999 -9999 -9999 -9999 -9999 -9999 -9999 -9999 -9999 -9999 -9999 -9999 -9999 -9999 -9999 -9999 -9999 -9999 -9999 -9999 -9999 -9999 -9999 -9999 -9999 -9999 -9999 -9999 -9999 -9999 -9999 -9999 -9999 -9999 -9999 -9999 -9999 -9999 -9999 -9999 -9999 -9999 -9999 -9999 -9999 -9999 -9999 -9999 -9999 -9999 -9999 -9999 -9999 -9999 -9999 -9999 -9999 -9999 -9999 -9999 -9999 -9999 -9999 -9999 -9999 -9999 -9999 -9999 -9999 -9999 -9999 -9999 -9999 -9999 -9999 -9999 -9999 -9999 -9999 -9999 -9999 -9999 -9999 -9999 -9999 -9999 -9999 -9999 -9999 -9999 -9999 -9999 -9999 -9999 -9999 -9999 -9999 -9999 -9999 -9999 -9999 -9999 -9999 -9999 -9999 -9999 -9999 -9999 -9999 -9999 -9999 -9999 -9999 -9999 -9999 -9999 -9999 -9999 -9999 -9999 -9999 -9999 -9999 -9999 -9999 -9999 -9999 -9999 -9999 -9999 -9999 -9999
-9999 -9999 -9999 -9999 -9999 -9999 -9999 -9999 -9999 -9999 -9999 -9999 -9999 -9999 -9999 -9999 -9999 -9999 -9999 -9999 -9999 -9999 -9999 -9999 -9999 -9999 -9999 -9999 -9999 -9999 -9999 -9999 -9999 -9999 -9999 -9999 -9999 -9999 -9999 -9999 -9999 -9999 -9999 -9999 -9999 -9999 -9999 -9999 -9999 -9999 -9999 -9999 -9999 -9999 -9999 -9999 -9999 -9999 -9999 -9999 -9999 -9999 -9999 -9999 -9999 -9999 -9999 -9999 -9999 -9999 -9999 -9999 -9999 -9999 -9999 -9999 -9999 -9999 -9999 -9999 -9999 -9999 -9999 -9999 -9999 -9999 -9999 -9999 -9999 -9999 -9999 -9999 -9999 -9999 -9999 -9999 -9999 -9999 -9999 -9999 -9999 -9999 -9999 -9999 -9999 -9999 -9999 -9999 -9999 -9999 -9999 -9999 -9999 -9999 -9999 -9999 -9999 -9999 -9999 -9999 -9999 -9999 -9999 -9999 -9999 -9999 -9999 -9999 -9999 -9999 -9999 -9999 -9999 -9999 -9999 -9999 -9999 -9999 -9999 -9999 -9999 -9999 -9999 -9999 -9999 -9999 -9999 -9999 -9999 -9999 -9999
-9999 -9999 -9999 -9999 -9999 -9999 -9999 -9999 -9999 -9999 -9999 -9999 -9999 -9999 -9999 -9999 -9999 -9999 -9999 -9999 -9999 -9999 -9999 -9999 -9999 -9999 -9999 -9999 -9999 -9999 -9999 -9999 -9999 -9999 -9999 -9999 -9999 -9999 -9999 -9999 -9999 -9999 -9999 -9999 -9999 -9999 -9999 -9999 -9999 -9999 -9999 -9999 -9999 -9999 -9999 -9999 -9999 -9999 -9999 -9999 -9999 -9999 -9999 -9999 -9999 -9999 -9999 -9999 -9999 -9999 -9999 -9999 -9999 -9999 -9999 -9999 -9999 -9999 -9999 -9999 -9999 -9999 -9999 -9999 -9999 -9999 -9999 -9999 -9999 -9999 -9999 -9999 -9999 -9999 -9999 -9999 -9999 -9999 -9999 -9999 -9999 -9999 -9999 -9999 -9999 -9999 -9999 -9999 -9999 -9999 -9999 -9999 -9999 -9999 -9999 -9999 -9999 -9999 -9999 -9999 -9999 -9999 -9999 -9999 -9999 -9999 -9999 -9999 -9999 -9999 -9999 -9999 -9999 -9999 -9999 -9999 -9999 -9999 -9999 -9999 -9999 -9999 -9999 -9999 -9999 -9999 -9999 -9999 -9999 -9999 -9999
-9999 -9999 -9999 -9999 -9999 -9999 -9999 -9999 -9999 -9999 -9999 -9999 -9999 -9999 -9999 -9999 -9999 -9999 -9999 -9999 -9999 -9999 -9999 -9999 -9999 -9999 -9999 -9999 -9999 -9999 -9999 -9999 -9999 -9999 -9999 -9999 -9999 -9999 -9999 -9999 -9999 -9999 -9999 -9999 -9999 -9999 -9999 -9999 -9999 -9999 -9999 -9999 -9999 -9999 -9999 -9999 -9999 -9999 -9999 -9999 -9999 -9999 -9999 -9999 -9999 -9999 -9999 -9999 -9999 -9999 -9999 -9999 -9999 -9999 -9999 -9999 -9999 -9999 -9999 -9999 -9999 -9999 -9999 -9999 -9999 -9999 -9999 -9999 -9999 -9999 -9999 -9999 -9999 -9999 -9999 -9999 -9999 -9999 -9999 -9999 -9999 -9999 -9999 -9999 -9999 -9999 -9999 -9999 -9999 -9999 -9999 -9999 -9999 -9999 -9999 -9999 -9999 -9999 -9999 -9999 -9999 -9999 -9999 -9999 -9999 -9999 -9999 -9999 -9999 -9999 -9999 -9999 -9999 -9999 -9999 -9999 -9999 -9999 -9999 -9999 -9999 -9999 -9999 -9999 -9999 -9999 -9999 -9999 -9999 -9999 -9999
-9999 -9999 -9999 -9999 -9999 -9999 -9999 -9999 -9999 -9999 -9999 -9999 -9999 -9999 -9999 -9999 -9999 -9999 -9999 -9999 -9999 -9999 -9999 -9999 -9999 -9999 -9999 -9999 -9999 -9999 -9999 -9999 -9999 -9999 -9999 -9999 -9999 -9999 -9999 -9999 -9999 -9999 -9999 -9999 -9999 -9999 -9999 -9999 -9999 -9999 -9999 -9999 -9999 -9999 -9999 -9999 -9999 -9999 -9999 -9999 -9999 -9999 -9999 -9999 -9999 -9999 -9999 -9999 -9999 -9999 -9999 -9999 -9999 -9999 -9999 -9999 -9999 -9999 -9999 -9999 -9999 -9999 -9999 -9999 -9999 -9999 -9999 -9999 -9999 -9999 -9999 -9999 -9999 -9999 -9999 -9999 -9999 -9999 -9999 -9999 -9999 -9999 -9999 -9999 -9999 -9999 -9999 -9999 -9999 -9999 -9999 -9999 -9999 -9999 -9999 -9999 -9999 -9999 -9999 -9999 -9999 -9999 -9999 -9999 -9999 -9999 -9999 -9999 -9999 -9999 -9999 -9999 -9999 -9999 -9999 -9999 -9999 -9999 -9999 -9999 -9999 -9999 -9999 -9999 -9999 -9999 -9999 -9999 -9999 -9999 -9999
-9999 -9999 -9999 -9999 -9999 -9999 -9999 -9999 -9999 -9999 -9999 -9999 -9999 -9999 -9999 -9999 -9999 -9999 -9999 -9999 -9999 -9999 -9999 -9999 -9999 -9999 -9999 -9999 -9999 -9999 -9999 -9999 -9999 -9999 -9999 -9999 -9999 -9999 -9999 -9999 -9999 -9999 -9999 -9999 -9999 -9999 -9999 -9999 -9999 -9999 -9999 -9999 -9999 -9999 -9999 -9999 -9999 -9999 -9999 -9999 -9999 -9999 -9999 -9999 -9999 -9999 -9999 -9999 -9999 -9999 -9999 -9999 -9999 -9999 -9999 -9999 -9999 -9999 -9999 -9999 -9999 -9999 -9999 -9999 -9999 -9999 -9999 -9999 -9999 -9999 -9999 -9999 -9999 -9999 -9999 -9999 -9999 -9999 -9999 -9999 -9999 -9999 -9999 -9999 -9999 -9999 -9999 -9999 -9999 -9999 -9999 -9999 -9999 -9999 -9999 -9999 -9999 -9999 -9999 -9999 -9999 -9999 -9999 -9999 -9999 -9999 -9999 -9999 -9999 -9999 -9999 -9999 -9999 -9999 -9999 -9999 -9999 -9999 -9999 -9999 -9999 -9999 -9999 -9999 -9999 -9999 -9999 -9999 -9999 -9999 -9999
-9999 -9999 -9999 -9999 -9999 -9999 -9999 -9999 -9999 -9999 -9999 -9999 -9999 -9999 -9999 -9999 -9999 -9999 -9999 -9999 -9999 -9999 -9999 -9999 -9999 -9999 -9999 -9999 -9999 -9999 -9999 -9999 -9999 -9999 -9999 -9999 -9999 -9999 -9999 -9999 -9999 -9999 -9999 -9999 -9999 -9999 -9999 -9999 -9999 -9999 -9999 -9999 -9999 -9999 -9999 -9999 -9999 -9999 -9999 -9999 -9999 -9999 -9999 -9999 -9999 -9999 -9999 -9999 -9999 -9999 -9999 -9999 -9999 -9999 -9999 -9999 -9999 -9999 -9999 -9999 -9999 -9999 -9999 -9999 -9999 -9999 -9999 -9999 -9999 -9999 -9999 -9999 -9999 -9999 -9999 -9999 -9999 -9999 -9999 -9999 -9999 -9999 -9999 -9999 -9999 -9999 -9999 -9999 -9999 -9999 -9999 -9999 -9999 -9999 -9999 -9999 -9999 -9999 -9999 -9999 -9999 -9999 -9999 -9999 -9999 -9999 -9999 -9999 -9999 -9999 -9999 -9999 -9999 -9999 -9999 -9999 -9999 -9999 -9999 -9999 -9999 -9999 -9999 -9999 -9999 -9999 -9999 -9999 -9999 -9999 -9999
-9999 -9999 -9999 -9999 -9999 -9999 -9999 -9999 -9999 -9999 -9999 -9999 -9999 -9999 -9999 -9999 -9999 -9999 -9999 -9999 -9999 -9999 -9999 -9999 -9999 -9999 -9999 -9999 -9999 -9999 -9999 -9999 -9999 -9999 -9999 -9999 -9999 -9999 -9999 -9999 -9999 -9999 -9999 -9999 -9999 -9999 -9999 -9999 -9999 -9999 -9999 -9999 -9999 -9999 -9999 -9999 -9999 -9999 -9999 -9999 -9999 -9999 -9999 -9999 -9999 -9999 -9999 -9999 -9999 -9999 -9999 -9999 -9999 -9999 -9999 -9999 -9999 -9999 -9999 -9999 -9999 -9999 -9999 -9999 -9999 -9999 -9999 -9999 -9999 -9999 -9999 -9999 -9999 -9999 -9999 -9999 -9999 -9999 -9999 -9999 -9999 -9999 -9999 -9999 -9999 -9999 -9999 -9999 -9999 -9999 -9999 -9999 -9999 -9999 -9999 -9999 -9999 -9999 -9999 -9999 -9999 -9999 -9999 -9999 -9999 -9999 -9999 -9999 -9999 -9999 -9999 -9999 -9999 -9999 -9999 -9999 -9999 -9999 -9999 -9999 -9999 -9999 -9999 -9999 -9999 -9999 -9999 -9999 -9999 -9999 -9999
