ncols         115
nrows         112
xllcorner     121639.01841475
yllcorner     9138292.4400407
cellsize      1000
NODATA_value  -9999
-9999 -9999 -9999 -9999 -9999 -9999 -9999 -9999 -9999 -9999 -9999 -9999 -9999 -9999 -9999 -9999 -9999 -9999 -9999 -9999 -9999 -9999 -9999 -9999 -9999 -9999 -9999 720 667 706 587 508 539 534 481 404 563 571 631 711 860 1117 1061 934 774 631 568 540 442 333 209 164 218 207 199 78 58 47 61 63 52 52 51 52 41 40 48 54 53 59 55 48 87 89 74 70 72 72 79 81 102 106 120 136 153 169 204 221 220 156 152 151 137 120 183 168 168 187 173 181 135 135 129 119 117 66 81 54 49 33 11 5 7 3 -9999 
1464 1549 1574 1527 1557 1545 1460 1354 1284 1271 1414 1289 1194 1147 1239 1255 1211 1238 1195 1274 1365 1099 1127 1197 741 737 919 804 853 909 642 594 733 560 494 436 601 565 611 658 687 893 935 865 731 608 555 498 459 285 238 204 136 165 157 115 59 47 56 48 41 75 76 62 52 45 55 63 61 62 73 54 69 87 76 80 81 83 88 86 103 118 132 155 167 175 226 247 233 211 212 213 228 164 231 202 199 266 275 268 181 182 165 149 134 94 107 54 25 36 48 17 16 13 -9999 
1366 1418 1409 1410 1406 1463 1530 1254 1262 1199 1294 1420 1366 1460 1478 1435 1322 1500 1402 1425 1446 1323 1381 1316 816 866 988 1075 1000 875 771 689 782 653 579 458 576 556 590 622 646 731 769 713 616 555 500 476 446 314 280 194 114 90 102 59 69 54 57 63 65 66 58 39 45 55 62 59 56 74 76 79 67 118 112 112 92 105 108 109 138 140 167 193 215 241 323 330 344 304 361 336 465 365 327 289 301 302 265 265 239 254 232 207 211 93 126 150 92 115 52 34 23 17 -9999 
1345 1345 1323 1302 1316 1355 1511 1219 1222 1194 1254 1363 1378 1467 1631 1709 1716 1654 1613 1625 1665 1588 1523 1439 1308 1378 1383 1088 990 943 736 843 801 805 621 549 591 563 587 572 595 557 610 591 553 512 476 420 395 307 187 230 299 241 195 122 76 77 95 109 85 63 50 42 57 57 64 68 64 75 102 88 71 90 105 103 92 118 130 191 212 236 215 270 279 272 375 413 425 454 427 492 445 517 391 331 327 330 285 251 297 262 249 231 217 177 137 186 128 136 131 72 42 23 -9999 
1243 1239 1228 1227 1244 1203 1188 1165 1165 1147 1186 1165 1199 1326 1416 1514 2052 1830 1846 1821 1739 1551 1405 1396 1613 1597 1525 1193 976 911 761 687 837 855 754 560 549 553 569 557 574 537 537 538 488 447 437 343 357 266 291 265 336 336 268 130 109 156 80 93 83 171 78 57 45 63 49 56 73 102 101 107 89 105 115 106 110 131 148 228 261 292 249 303 366 386 399 457 438 535 488 579 589 540 427 370 392 322 296 328 333 304 316 274 239 251 227 237 154 127 171 64 58 28 -9999 
1264 1241 1204 1183 1235 1226 1203 1166 1155 1162 1206 1214 1234 1275 1404 1629 1729 1698 1699 1625 1606 1539 1430 1330 1404 1371 1398 1165 950 845 827 764 621 693 747 544 522 545 566 513 551 531 512 486 449 435 390 360 282 261 271 377 425 427 397 240 284 264 80 107 107 84 88 61 57 57 57 79 62 88 96 110 128 129 135 154 169 195 212 212 327 381 397 496 490 525 504 592 625 688 759 783 774 713 533 486 476 426 356 371 350 349 346 325 266 294 243 240 189 199 167 118 54 48 -9999 
1146 1178 1212 1191 1220 1282 1236 1166 1190 1176 1227 1234 1259 1312 1350 1379 1451 1567 1710 1546 1402 1608 1495 1306 1108 1195 1066 938 865 833 813 854 701 552 517 500 474 480 474 487 474 565 496 469 448 336 343 287 292 320 307 319 337 389 457 323 425 362 123 127 135 141 259 152 71 71 76 111 85 98 102 116 135 144 153 181 219 271 285 288 329 425 441 546 565 585 589 658 736 873 830 953 854 847 592 548 562 432 422 417 375 356 354 337 310 306 266 225 223 221 172 137 81 47 -9999 
1054 1053 1058 1077 1091 1120 1120 1153 1085 1232 1369 1439 1372 1620 1446 1403 1472 1565 1613 1531 1422 1399 1364 1244 1169 1086 989 953 942 857 794 865 773 652 575 479 469 474 472 440 425 472 464 428 371 372 348 303 305 318 303 292 353 364 405 402 353 202 206 187 171 204 204 155 121 152 120 175 202 99 108 113 143 154 165 231 242 290 345 345 352 383 425 548 596 658 747 726 823 958 1225 1246 1122 976 757 713 702 585 529 491 432 413 403 363 353 313 311 287 244 216 190 112 104 78 -9999 
989 1010 1016 1037 1058 1012 1063 1092 1181 1210 1288 1261 1272 1476 1526 1629 1523 1572 1637 1589 1416 1323 1256 1183 1120 1077 1018 890 830 814 815 801 810 629 565 474 464 465 465 461 463 420 365 367 340 481 383 328 351 334 328 330 357 340 371 310 267 201 282 394 307 265 259 214 188 108 70 81 211 210 197 191 161 184 209 254 284 319 364 387 478 462 477 596 703 846 971 1016 1066 1248 1376 1401 1249 1155 873 801 724 641 563 520 436 443 409 385 348 348 283 266 224 205 158 134 105 88 -9999 
944 953 943 978 931 941 970 976 1033 1097 1090 1109 1165 1241 1273 1362 1340 1402 1535 1339 1317 1131 1118 1093 1016 1058 1045 978 882 833 834 654 776 744 651 472 490 505 504 452 537 400 475 464 409 504 367 339 363 363 328 337 370 318 247 275 268 168 272 302 345 355 286 321 135 153 196 117 117 169 197 283 184 229 222 280 347 362 395 432 539 543 527 621 762 1021 1047 1152 1214 1398 1534 1600 1420 1387 984 896 827 661 627 562 443 448 431 404 391 358 283 247 236 188 163 134 106 90 -9999 
871 883 848 868 881 885 851 940 962 990 1022 1071 1054 1090 1189 1257 1301 1504 1591 1362 1247 1141 1102 1016 1018 1040 1010 1027 889 871 819 809 652 556 516 529 473 514 526 476 550 483 438 449 518 497 522 362 405 399 361 346 388 396 275 208 194 193 253 272 362 458 443 339 323 239 266 140 90 211 408 329 253 226 223 332 353 357 423 450 507 578 730 756 844 1122 1218 1381 1459 1878 2050 2052 1953 1772 1283 1065 861 659 612 568 478 439 420 378 360 347 309 292 219 201 199 166 133 110 -9999 
839 847 828 824 833 811 811 898 895 912 946 1015 920 1025 1132 1077 1292 1490 1591 1347 1139 1079 1058 959 977 1022 955 948 908 875 770 740 693 666 708 570 586 480 639 494 510 540 533 659 686 498 561 542 482 473 391 474 326 270 252 240 225 213 223 265 327 327 447 515 337 425 302 214 154 276 292 305 292 346 352 326 398 446 463 502 561 652 704 861 933 1101 1304 1407 1586 2099 2242 2328 2236 2042 1514 1252 986 677 636 600 480 456 441 383 370 372 294 238 217 207 200 203 135 108 -9999 
782 776 784 760 779 761 748 778 748 777 815 828 844 920 965 936 1064 1200 1382 1244 1039 912 948 901 898 872 927 898 879 813 778 741 808 802 797 735 665 528 657 494 595 685 534 679 616 560 504 565 595 534 450 481 286 242 248 239 224 250 240 236 270 406 420 436 413 464 397 250 143 231 201 280 402 404 478 514 539 470 481 529 572 662 717 891 1094 1286 1313 1429 1588 2292 2622 2619 2530 2279 1674 1303 1086 727 634 589 502 467 441 423 442 391 293 243 190 218 206 178 205 141 -9999 
753 758 765 769 762 732 714 720 718 728 731 771 791 847 872 862 999 1085 1129 1076 972 897 856 876 893 880 859 863 796 828 881 853 858 864 831 863 614 665 673 527 646 853 696 665 757 622 661 665 644 724 593 431 304 277 262 238 220 231 233 225 255 295 341 402 471 619 453 373 326 203 220 360 497 451 580 594 562 535 518 592 629 676 745 963 1142 1213 1294 1355 1538 2310 2519 2811 2747 2393 1646 1381 1150 770 679 605 521 480 466 446 429 430 329 330 266 218 170 93 59 52 -9999 
745 742 746 733 742 717 706 696 704 720 734 745 722 779 774 788 906 965 1016 1011 930 884 869 844 870 855 871 842 840 851 952 1010 1108 1122 1075 1031 728 843 756 717 591 867 944 1033 768 640 860 847 1094 918 669 503 328 296 287 251 246 237 283 292 324 303 373 463 609 513 328 449 370 249 192 234 385 358 375 423 490 530 565 586 637 670 722 911 1116 1206 1245 1398 1553 2150 2390 2522 2533 2239 1493 1425 1157 767 680 615 532 489 492 437 397 421 334 318 272 259 220 119 92 50 -9999 
727 722 715 714 712 700 693 691 685 682 686 685 678 698 702 735 800 841 850 846 841 816 805 834 878 870 876 859 878 879 1022 1170 1073 1297 1151 1102 844 994 907 735 625 685 832 1026 864 654 749 1041 967 899 715 505 339 310 289 258 249 241 264 264 320 301 405 470 522 445 473 326 271 378 273 304 271 283 294 320 402 424 622 619 657 648 706 905 1046 1028 1183 1316 1556 2011 2169 2304 2232 1916 1803 1306 1036 736 688 595 512 495 554 501 488 369 295 304 287 210 140 116 115 143 -9999 
719 716 709 709 701 691 688 684 682 679 678 679 678 686 697 717 758 804 808 783 803 799 796 785 894 869 872 873 882 907 1125 1239 1356 1439 1339 1200 909 1148 932 810 705 776 938 1116 864 747 957 772 739 687 495 496 486 312 308 261 248 237 236 268 371 377 384 412 518 503 438 520 514 458 317 314 380 310 374 537 625 581 533 655 724 974 781 1007 997 1123 1308 1454 1680 2046 1924 1851 1660 1564 1476 1266 970 722 665 602 532 506 538 479 452 427 387 272 237 147 208 174 235 200 -9999 
711 705 702 704 695 690 684 683 681 679 676 673 673 679 683 702 735 754 759 790 777 767 718 741 1141 1079 948 823 835 900 1143 1336 1572 1626 1362 1216 1199 1240 1172 1006 875 971 991 1126 1179 1180 1079 1012 1034 906 774 712 552 388 352 261 243 243 285 285 280 291 319 388 496 527 492 393 373 291 256 367 636 592 454 436 475 599 648 660 696 882 953 976 1040 1090 1229 1390 1575 1891 1927 1815 1540 1450 1285 1144 858 691 648 609 533 507 484 478 438 420 367 311 266 247 276 225 252 262 -9999 
694 694 690 690 690 685 684 681 678 676 673 670 670 670 669 669 675 679 693 706 703 699 684 706 1104 1049 906 785 829 922 1099 1270 1495 1547 1464 1344 1278 1279 1398 1145 985 1059 1103 1114 1353 1338 1307 1118 1009 928 628 595 566 473 348 309 253 251 265 268 271 331 329 338 380 445 501 319 295 356 452 523 665 637 540 453 529 551 638 654 693 825 902 983 1004 1052 1167 1225 1514 1690 1764 1782 1625 1409 1286 986 890 696 642 595 539 516 511 451 421 401 339 328 256 293 254 258 265 242 -9999 
686 688 686 684 684 684 680 677 674 675 670 671 666 665 666 666 668 667 674 685 693 685 684 690 811 847 788 738 799 895 1056 1154 1210 1365 1325 1238 1226 1197 1268 1322 1250 1096 1124 1382 1293 1223 1215 1071 985 844 802 716 702 518 512 290 349 304 293 310 330 478 500 450 404 398 437 353 329 322 343 304 293 309 337 453 630 564 501 567 632 747 795 902 1010 1069 1109 1146 1256 1412 1474 1369 1243 1218 1120 958 867 763 719 677 577 541 509 442 415 390 346 325 282 272 249 239 243 236 -9999 
682 680 682 675 679 677 675 675 671 670 669 669 665 664 662 663 664 663 665 672 675 673 678 673 677 683 685 687 729 785 915 981 966 1044 1143 1153 1241 1249 1211 1287 1379 1586 1554 1533 1420 1339 1216 983 906 849 781 729 542 423 422 285 327 342 416 402 412 515 576 532 474 470 462 410 376 357 321 314 353 337 317 367 423 487 538 598 638 679 730 856 943 995 1102 1100 1249 1323 1333 1304 1032 975 896 867 778 752 687 661 557 531 496 434 404 378 319 290 275 262 250 235 210 203 -9999 
670 673 669 665 668 670 665 669 666 668 665 666 666 665 661 661 663 665 668 669 669 673 674 671 676 684 684 686 707 757 817 839 915 1101 1135 1137 1318 1392 1375 1344 1416 1251 1333 1429 1321 1263 1139 922 877 812 707 710 608 411 516 309 333 343 431 528 475 518 661 645 542 506 468 456 411 402 348 332 368 356 319 366 394 414 500 583 608 656 691 833 865 959 1032 1037 1103 1119 1165 1152 967 869 807 712 690 607 579 555 527 498 467 409 385 360 318 291 268 227 219 204 194 178 -9999 
665 668 665 660 662 663 668 665 666 666 663 662 661 662 661 662 662 662 665 668 667 667 669 672 678 680 680 683 687 802 833 958 1049 1224 1254 1222 1207 1279 1380 1424 1292 1105 1121 1179 1185 1167 1072 845 811 685 678 621 611 629 424 478 379 497 644 676 674 727 796 854 790 680 725 613 540 468 437 363 346 356 447 504 425 463 553 563 574 636 642 738 769 810 842 836 946 940 929 1026 876 758 726 675 644 586 556 541 506 479 458 404 377 360 304 283 278 219 208 202 186 173 -9999 
662 662 663 660 664 662 667 660 662 661 663 662 663 663 661 662 662 664 663 665 663 664 664 665 669 672 672 684 695 700 752 865 1027 1115 1179 1162 1109 963 961 1093 1034 885 947 856 1111 1003 913 776 773 732 637 648 546 654 467 507 544 571 663 681 693 762 803 872 811 673 836 725 608 502 447 391 355 371 489 629 585 541 505 580 591 637 664 655 734 780 845 794 845 893 905 934 808 740 662 635 629 577 541 505 477 468 444 395 366 344 294 269 250 206 195 190 184 178 -9999 
660 658 661 661 661 661 662 661 662 663 662 663 662 661 663 664 661 666 665 665 664 666 667 665 667 671 676 685 705 723 745 825 884 1036 1166 1115 1186 1010 932 796 827 808 855 769 955 935 906 802 696 663 559 591 450 514 554 669 632 639 729 791 796 816 852 879 747 821 861 786 620 454 411 424 378 427 386 603 683 607 554 522 580 585 614 678 631 624 640 683 757 838 823 740 709 699 589 531 531 518 554 535 548 479 444 357 352 316 279 254 235 202 187 180 207 172 -9999 
664 664 661 667 661 661 661 664 658 661 663 662 662 662 664 664 662 663 662 663 663 663 665 672 668 670 673 696 713 734 782 816 846 1016 1053 1014 1036 1044 1125 983 898 844 771 656 648 720 837 593 551 556 554 547 540 576 613 662 670 713 763 790 931 984 965 1003 949 932 934 868 816 620 594 534 471 427 453 532 641 746 650 593 592 578 577 581 593 601 610 652 724 777 757 718 710 645 567 522 518 509 573 619 610 545 552 466 455 422 312 233 219 186 180 166 156 156 -9999 
663 661 661 666 695 682 666 664 661 661 662 663 664 666 667 665 664 666 669 668 669 667 665 665 666 669 672 733 761 772 784 837 854 843 849 880 1036 814 829 819 884 784 748 680 590 616 686 590 543 545 577 472 408 549 563 616 711 763 876 919 941 1105 1064 1036 1004 988 957 861 878 852 586 547 458 488 521 510 563 636 678 621 705 584 580 578 578 578 593 621 643 837 720 702 703 676 630 579 610 520 614 738 689 590 387 291 233 249 415 317 283 180 169 157 141 139 -9999 
667 667 673 665 740 844 741 718 662 663 662 663 665 671 669 667 669 666 668 667 667 668 667 667 669 670 679 755 788 810 821 829 873 850 851 879 999 939 686 720 737 755 668 658 541 554 543 537 529 526 467 420 532 562 599 625 686 800 933 1052 1106 1213 1192 1196 1080 1024 941 867 851 814 648 558 483 546 525 513 622 600 805 711 656 596 623 636 581 581 583 585 617 678 760 751 744 757 715 608 716 612 549 471 384 289 244 238 196 177 198 172 174 144 132 129 118 118 -9999 
665 663 672 686 833 1013 938 752 678 668 678 676 684 671 673 673 666 667 669 671 667 671 667 668 676 686 710 783 823 835 894 852 883 905 975 915 823 748 677 655 595 611 579 602 543 544 524 516 500 506 467 445 520 504 544 602 655 750 1004 1284 1257 1515 1311 1369 1175 1080 979 847 828 763 737 647 631 614 613 632 666 649 817 875 726 654 692 663 587 582 581 586 589 669 750 736 716 807 767 792 787 667 493 574 319 276 270 375 218 241 163 140 151 142 121 144 165 156 -9999 
669 670 676 723 713 743 897 1081 922 832 811 817 882 680 684 680 668 669 670 672 672 671 675 683 704 756 817 936 999 1066 1087 994 967 1041 957 889 710 730 699 646 606 658 553 550 506 504 503 501 460 512 512 509 528 557 532 562 636 722 1046 1161 1263 1525 1579 1408 1267 1096 1012 874 837 819 759 696 684 659 705 696 703 697 974 1027 820 745 680 639 597 589 592 589 594 727 750 754 791 868 814 726 579 738 541 558 350 268 255 271 220 265 281 215 192 154 154 185 112 109 -9999 
672 676 689 728 750 819 917 974 952 887 913 1024 790 751 692 689 675 671 668 673 674 676 675 706 711 787 882 964 1093 1114 1171 1203 1166 1040 891 856 842 803 751 654 635 687 553 557 494 490 478 481 508 501 546 514 543 606 555 545 628 702 995 1234 1407 1331 1514 1554 1217 1096 990 863 927 837 825 859 868 833 822 844 851 898 936 1067 969 1131 963 891 725 670 539 625 657 747 760 796 788 692 603 462 422 407 334 298 271 294 277 245 246 302 412 301 224 298 235 181 155 149 -9999 
673 680 689 732 766 855 867 912 912 881 827 855 864 816 716 708 698 699 673 671 677 677 704 718 736 787 914 1048 1127 1092 1397 1558 1392 1002 939 881 940 868 690 669 724 714 565 545 525 516 530 580 608 647 573 596 636 597 644 649 616 675 823 972 1139 1212 1137 1298 1254 1094 987 864 828 773 833 831 926 943 930 983 913 949 1098 1153 1107 1221 1300 1082 818 711 587 480 541 643 749 773 731 566 583 420 434 408 335 315 276 293 289 275 294 270 307 354 245 318 317 360 419 342 -9999 
708 741 773 804 826 901 956 991 976 965 901 799 806 774 750 766 735 733 709 684 702 722 751 796 793 907 1139 1093 1123 1072 1315 1466 1091 939 838 814 703 692 634 754 895 714 610 583 545 541 543 630 658 703 608 635 649 724 723 764 611 650 872 1033 1315 1183 1010 1045 1207 1104 963 796 806 764 780 745 956 1046 1094 1060 1093 1045 1034 1055 1100 1204 1222 1321 937 816 577 554 505 526 670 718 859 621 491 493 422 382 371 372 371 361 377 369 364 527 417 241 346 195 209 271 334 636 -9999 
808 777 831 852 889 966 1023 1061 1013 966 933 805 788 787 777 781 761 763 727 714 724 759 770 829 857 984 1129 1138 1103 1082 1072 1192 1074 828 742 704 692 666 646 813 1185 852 593 588 533 570 556 690 690 719 687 710 681 748 773 748 641 689 952 1126 1203 1136 1243 1094 923 1082 957 820 697 669 609 636 828 894 909 928 919 890 879 904 870 968 962 1063 1001 975 703 592 496 436 403 461 574 667 728 703 638 569 616 502 498 459 456 550 542 416 343 398 392 266 220 297 442 559 -9999 
868 837 885 936 967 968 1058 1120 1031 986 974 830 822 803 791 796 784 760 747 744 807 811 945 942 936 1242 1347 1211 1264 1180 888 803 826 752 727 712 679 664 657 688 611 607 597 590 588 586 592 781 911 1021 1023 869 903 841 865 882 862 779 965 1055 1031 983 1134 1075 821 1129 968 736 728 658 607 570 708 833 873 905 838 828 832 839 827 862 892 959 920 870 862 652 515 527 458 423 493 577 585 672 757 856 673 717 725 612 551 620 736 658 595 607 587 287 270 261 264 384 -9999 
943 1005 1068 1126 1168 1244 1212 1230 1167 1042 1019 945 900 845 829 836 828 819 799 787 864 850 950 1066 1096 1195 1427 1439 1327 1342 849 830 814 776 742 709 669 680 678 652 611 604 606 607 599 600 605 822 1010 946 1199 1056 1021 911 980 962 862 771 802 882 1014 852 905 872 703 947 915 685 631 597 564 589 623 761 851 864 825 819 814 816 857 800 841 812 811 762 762 611 528 496 590 502 372 385 436 455 477 498 524 565 544 665 774 639 806 735 681 715 737 457 299 339 402 285 -9999 
987 1058 1114 1219 1311 1408 1369 1332 1284 1163 1117 948 873 886 851 825 841 858 817 845 889 902 988 1134 1255 1297 1260 1300 1323 1332 1210 928 890 811 769 699 693 685 688 631 617 622 621 624 583 610 623 918 1042 1232 1296 1195 1430 1236 1126 1059 919 796 779 728 769 785 756 718 565 577 599 603 554 650 507 564 618 627 684 845 873 848 820 749 724 735 825 873 911 731 618 569 526 556 537 500 402 385 389 346 386 387 354 401 363 465 443 482 572 672 723 665 560 540 474 355 421 401 -9999 
1004 1098 1225 1333 1404 1560 1628 1398 1319 1241 1246 999 922 951 906 1066 964 922 976 997 1034 1068 1240 1325 1447 1465 1487 1514 1257 1233 1130 1073 1080 906 780 732 738 704 716 686 668 637 627 640 638 654 663 990 1136 1467 1619 1501 1615 1381 1168 1072 993 859 791 704 635 663 576 618 546 543 522 527 482 494 479 572 592 566 575 777 815 920 797 667 628 649 695 712 772 784 798 746 662 655 630 508 482 486 405 351 330 372 341 332 303 352 338 374 480 508 796 679 665 585 487 470 542 346 -9999 
1184 1241 1472 1454 1624 1759 1738 2007 1517 1454 1343 1151 1057 966 948 968 1045 986 1040 1081 1072 1137 1267 1421 1568 1644 1659 1757 1388 1339 1311 1220 1080 879 804 755 816 750 722 646 623 645 622 640 647 669 676 956 1281 1447 1334 1535 1515 1293 1199 1142 1057 943 786 644 609 554 532 517 512 514 510 480 475 485 503 484 499 555 588 746 741 768 740 660 606 584 579 608 668 682 693 669 703 659 624 541 527 454 396 355 325 345 344 319 323 325 354 294 288 335 416 442 457 478 570 618 694 640 -9999 
1179 1334 1709 1870 1570 1951 2220 1994 1627 1416 1302 1146 1071 1012 1043 1089 1218 1101 1145 1176 1235 1262 1392 1383 1509 1819 1872 1754 1695 1624 1637 1444 1330 998 1007 815 891 696 673 672 629 637 635 635 657 669 671 816 902 998 1258 1294 1230 1447 1337 1354 1165 908 808 671 594 483 483 478 480 477 491 487 486 480 460 461 478 535 621 643 727 725 699 679 626 567 522 523 493 541 588 641 691 639 639 589 580 500 434 362 331 348 492 416 377 319 281 261 359 349 401 373 403 418 403 427 571 651 -9999 
1240 1329 1580 2092 1729 2142 2209 2102 1579 1484 1432 1178 1123 1068 1191 1250 1369 1507 1291 1539 1369 1447 1484 1516 1587 1855 1761 1838 1958 2069 2031 1854 1902 1282 960 816 814 705 659 722 633 660 671 680 649 668 677 701 784 860 1030 1010 1162 1355 1269 1383 1178 1022 950 640 559 489 483 477 471 469 469 465 460 463 458 462 526 571 613 693 699 706 663 672 655 518 487 514 448 504 501 570 574 647 631 627 588 555 495 392 370 345 535 513 516 544 344 257 341 369 421 512 621 572 480 568 538 558 -9999 
1346 1521 1696 1911 2154 2209 2273 1997 1710 1598 1534 1239 1187 1119 1196 1436 1660 1776 1533 1656 1570 1531 1473 1485 1523 1736 1720 1814 1997 2164 1950 1669 1680 1135 918 813 828 863 736 729 639 659 660 660 662 672 682 705 758 764 873 890 1042 1175 1186 1379 1325 1308 1054 772 661 486 484 486 494 486 465 457 456 459 480 529 609 682 680 748 749 710 703 683 648 546 505 456 432 416 421 483 493 530 474 470 494 501 506 517 549 571 589 516 502 449 376 270 279 299 297 452 583 561 702 802 1096 1018 -9999 
1401 1522 1751 1950 2073 2161 2194 2078 1853 1667 1513 1281 1223 1210 1139 1271 1542 1568 1492 1581 1593 1502 1489 1477 1472 1597 1629 1703 1959 1849 2024 1435 1328 1109 1097 807 720 711 733 694 685 687 681 688 676 698 713 727 770 787 858 895 915 1011 1089 1227 1474 1355 1095 775 668 544 524 514 488 485 473 468 469 463 710 795 832 924 868 913 918 879 760 704 734 534 514 482 435 423 399 443 465 506 468 475 437 460 457 485 497 536 533 583 526 395 282 233 285 294 408 406 441 618 731 987 985 805 -9999 
1462 1474 1521 1839 1873 2006 2002 2058 1803 1695 1596 1364 1351 1347 1301 1488 1650 1605 1774 1511 1544 1384 1405 1418 1412 1481 1508 1625 1381 1374 1352 1087 962 808 759 753 741 745 707 688 688 696 696 680 694 714 734 762 782 793 897 945 1023 1152 1195 1374 1430 1251 1058 800 736 569 539 534 507 482 478 468 456 498 717 983 1135 1148 1039 979 1043 1097 864 852 788 564 587 513 439 418 411 436 423 428 445 449 447 447 433 464 476 486 525 506 511 462 297 269 227 253 267 370 535 823 958 890 853 626 -9999 
1436 1464 1509 1737 1693 1897 1882 1965 2027 1782 1684 1436 1413 1268 1361 1442 1669 1907 1713 1561 1539 1499 1269 1327 1362 1390 1519 1505 1339 1307 1254 978 883 781 744 727 710 713 719 693 687 687 684 688 704 731 748 772 820 855 936 1064 1102 1227 1306 1394 1240 1122 986 805 706 670 599 567 524 495 475 470 455 491 889 1103 1241 1305 1349 1353 1340 1383 1120 1144 942 700 616 578 495 477 430 375 374 364 416 448 420 431 451 446 439 466 451 467 469 509 508 517 322 275 388 437 501 527 543 565 611 477 -9999 
1439 1455 1496 1599 1644 1767 1814 1880 2010 1751 1625 1477 1380 1286 1406 1467 1668 1779 1786 1466 1520 1457 1313 1180 1323 1300 1298 1153 1261 1284 1018 854 806 761 742 716 702 687 686 693 697 699 707 717 733 781 807 844 911 949 1143 1224 1352 1517 1708 1607 1300 1249 1132 851 806 777 667 630 554 509 497 466 452 537 915 1144 1131 1413 1479 1564 1593 1570 1244 1275 922 725 682 618 478 456 422 383 394 378 382 443 447 422 447 470 475 480 448 440 434 423 442 440 399 304 266 208 296 384 375 441 465 588 -9999 
1440 1459 1492 1521 1550 1656 1957 1750 1747 1679 1536 1486 1445 1459 1497 1558 1740 1600 1531 1557 1427 1333 1236 1209 1120 1084 1143 1046 997 972 920 815 781 766 744 724 698 700 695 698 712 716 730 739 739 794 832 870 944 1004 1101 1258 1377 1603 1653 1746 1371 1191 1022 879 823 796 685 639 568 533 506 467 457 470 669 793 1027 1429 1616 1533 1467 1574 1523 1270 1233 941 783 653 507 433 418 380 393 379 380 426 441 439 473 438 490 503 476 451 427 377 368 360 442 468 337 259 273 197 208 256 306 359 -9999 
1476 1494 1511 1535 1576 1649 1984 1819 1572 1538 1521 1509 1513 1503 1634 1667 1843 1650 1548 1638 1435 1339 1170 1115 1123 1032 1042 999 965 935 941 830 781 774 750 721 704 704 691 708 725 738 754 772 788 787 841 885 980 1024 1146 1255 1360 1644 1728 1773 1525 1219 1119 873 821 826 686 662 584 549 517 473 454 472 689 798 874 1139 1493 1217 1328 1144 1002 1006 894 1090 845 710 536 497 448 353 316 313 366 409 468 452 432 407 445 440 419 381 376 346 343 349 390 385 408 427 300 190 168 152 277 276 -9999 
1486 1544 1528 1542 1585 1631 1869 1949 1579 1562 1546 1526 1567 1607 1776 1875 1894 1665 1554 1513 1437 1373 1204 1096 1119 1006 988 971 954 918 893 867 823 797 740 703 719 715 723 750 771 783 805 861 888 983 926 965 1031 1085 1281 1366 1582 1789 1781 1652 1429 1255 1101 891 852 795 702 669 573 536 516 474 466 466 603 731 968 1289 1114 1024 1308 1268 876 840 817 920 734 695 540 494 452 349 290 290 410 446 436 425 442 379 441 419 440 413 378 353 350 339 374 401 398 409 333 235 198 167 286 212 -9999 
1525 1516 1529 1555 1593 1707 1888 1730 1636 1603 1618 1726 1794 1885 2229 2137 2022 1768 1672 1588 1401 1306 1185 1129 1114 1038 964 954 947 914 885 849 825 798 734 711 716 726 739 781 834 863 905 868 988 1046 1043 1034 1060 1124 1304 1404 1622 1843 1781 1762 1531 1240 1079 923 869 802 737 664 560 535 509 472 450 460 619 739 905 929 853 878 1393 1259 963 767 757 834 721 605 595 515 468 376 339 273 366 405 366 321 329 386 401 395 431 406 414 390 354 337 371 390 422 419 390 292 237 169 208 296 -9999 
1480 1488 1511 1552 1557 1703 1906 1691 1623 1628 1652 1790 1919 2030 2304 2156 2114 1879 1753 1624 1395 1267 1173 1140 1096 1005 981 960 922 911 890 860 834 794 763 722 725 743 747 816 824 935 967 980 1012 1155 1049 1055 1072 1141 1258 1402 1641 2056 2004 1858 1317 1115 973 789 748 776 726 665 513 485 488 449 435 449 598 704 621 1043 1153 1122 1189 993 886 859 633 672 602 551 486 444 387 294 277 305 237 277 257 257 257 278 284 270 347 366 392 361 364 345 377 432 444 431 392 217 159 145 287 261 -9999 
1448 1511 1495 1501 1488 1585 1685 1652 1623 1634 1676 1813 1980 2113 2364 2193 2117 2024 1846 1702 1397 1294 1160 1119 1077 1000 960 938 907 907 871 859 840 825 780 782 761 766 812 836 909 965 1051 1095 1318 1268 1345 1272 1186 1102 1211 1334 1503 1980 1941 1777 1303 1103 998 832 784 705 678 666 506 490 474 440 428 489 598 613 693 806 888 1026 886 971 951 750 627 586 582 512 449 438 388 318 309 287 228 283 262 229 245 205 250 297 284 331 344 341 323 345 368 427 506 405 333 218 199 125 245 241 -9999 
1411 1503 1523 1483 1492 1540 1733 1639 1628 1634 1692 1869 2057 2184 2567 2318 2190 2055 1913 1765 1452 1312 1177 1139 1097 1007 965 949 911 890 873 849 830 825 806 772 820 793 810 898 929 971 1126 1221 1472 1408 1598 1471 1252 1065 1079 1306 1504 2118 1754 1669 1276 1105 937 823 780 712 636 614 550 487 469 441 432 490 596 530 661 735 943 986 826 797 760 738 605 557 559 523 436 419 398 345 296 294 270 229 230 212 197 210 209 217 250 258 298 293 305 322 383 298 346 335 295 159 129 116 203 282 -9999 
1395 1461 1551 1534 1525 1561 1637 1635 1626 1651 1709 1856 2037 2051 2367 2342 2304 2145 1964 1779 1472 1370 1284 1139 1075 1007 965 954 930 917 899 862 856 848 806 890 891 783 839 906 973 1034 1218 1336 1371 1444 1537 1286 1159 1078 1005 1249 1401 1730 1236 1144 922 853 760 726 628 597 579 551 541 475 454 416 432 441 472 501 543 743 772 681 728 712 561 573 522 477 466 444 383 360 307 282 316 303 199 196 214 213 198 194 194 178 223 240 266 278 279 328 409 294 284 344 350 131 211 177 211 244 -9999 
1459 1425 1513 1558 1561 1587 1583 1591 1617 1662 1688 1821 1813 1936 2165 2106 2196 2187 2029 1991 1469 1348 1253 1109 1092 1016 985 968 948 973 968 957 931 953 874 871 884 852 914 1007 1065 1119 1447 1606 1684 1542 1352 1248 1020 1030 946 1124 1234 1391 1577 1325 867 767 723 650 588 577 522 521 509 476 454 423 415 426 445 502 485 587 626 546 582 626 605 463 431 428 431 391 347 344 300 309 301 295 264 211 174 195 177 207 199 163 203 219 205 267 271 333 408 302 211 232 236 164 214 223 171 240 -9999 
1588 1595 1619 1651 1598 1712 1610 1612 1636 1682 1737 1764 1792 1864 1963 2083 2060 2222 2200 1848 1502 1351 1254 1139 1102 1021 982 982 1012 1021 1045 1011 1024 1003 941 913 910 937 895 1015 1095 1159 1395 1550 1692 1484 1332 1231 981 875 877 994 1060 1195 1274 1268 1014 727 675 595 569 547 503 493 484 478 453 419 402 417 473 410 419 532 555 525 528 530 521 425 401 393 386 356 322 299 285 203 236 212 198 189 209 171 181 204 179 199 165 183 163 224 240 279 352 251 179 212 90 128 191 269 183 197 -9999 
1595 1668 1730 1613 1694 1679 1683 1672 1655 1704 1729 1734 1778 1796 1985 1987 2107 2089 2214 1965 1462 1356 1284 1165 1110 1022 1036 1057 1122 1142 1140 1125 1094 1073 991 972 1014 963 980 1016 1092 1081 1225 1325 1333 1165 1139 1094 895 846 797 772 840 853 896 851 811 742 719 557 531 520 496 485 474 449 439 419 400 383 376 370 367 411 421 445 421 469 416 419 359 349 351 334 312 312 277 201 172 190 195 191 198 174 190 188 175 185 183 171 186 196 229 283 327 230 163 120 69 158 209 230 246 256 -9999 
1614 1726 1775 1652 1811 1911 1839 1797 1743 1652 1663 1707 1761 1826 1975 2100 2231 2357 1930 1686 1506 1412 1348 1206 1167 1071 1112 1155 1296 1356 1424 1409 1433 1313 1193 1138 1086 980 959 984 1011 1124 1152 1201 1211 1079 1086 960 859 814 789 682 750 760 776 757 721 687 634 540 520 505 486 479 472 478 445 425 408 392 364 360 354 354 379 354 409 389 370 377 363 321 345 348 309 274 242 195 179 156 173 176 177 145 159 162 155 186 174 160 175 190 207 237 273 286 165 70 86 126 131 143 196 191 -9999 
1434 1575 1714 1769 1796 1925 1972 1838 1765 1657 1630 1736 1781 1838 2049 2051 2204 2145 1893 1806 1573 1466 1371 1207 1157 1138 1274 1253 1393 1449 1588 1542 1601 1411 1294 1198 1111 991 957 965 1158 1044 1063 1112 1141 1016 989 975 801 801 704 677 692 710 689 679 643 616 577 522 511 496 474 470 469 457 434 411 396 388 369 357 347 341 335 332 318 312 315 353 364 283 276 265 229 219 198 187 183 159 164 145 164 164 132 142 134 147 143 143 144 154 137 144 204 209 191 87 41 28 31 41 66 59 -9999 
1535 1652 1710 1845 1871 1921 1877 1879 1874 1700 1580 1715 1741 1864 1996 2167 2220 2069 1963 1860 1554 1442 1392 1234 1209 1143 1255 1361 1507 1625 1785 1820 1814 1678 1406 1258 1205 1062 1001 901 889 918 919 959 937 873 872 792 763 728 719 605 583 591 582 561 540 540 524 483 484 470 457 453 455 424 416 397 386 379 361 348 348 319 307 326 304 323 293 320 299 270 272 258 247 218 204 190 170 162 151 161 142 157 142 145 135 136 138 127 113 119 116 130 167 166 168 79 64 24 23 28 63 54 -9999 
1600 1619 1707 1651 1680 1625 1635 1662 1715 1685 1636 1632 1734 1809 2143 2419 2455 2206 2300 2002 1612 1487 1413 1287 1245 1214 1285 1377 1574 1781 2101 2631 2314 1964 1559 1335 1213 1053 989 954 844 873 903 925 882 887 792 799 697 725 686 598 573 565 547 538 512 510 510 475 466 461 451 447 442 440 426 385 379 371 358 352 349 339 323 295 269 315 310 296 286 259 257 250 226 210 191 167 165 152 155 145 144 140 140 127 123 119 113 126 120 91 81 104 98 125 125 102 38 30 25 20 51 51 -9999 
1579 1550 1592 1570 1562 1512 1506 1714 1668 1463 1584 1472 1719 1853 2295 2603 2515 2594 2325 1996 1626 1483 1407 1302 1239 1178 1303 1393 1666 1864 2161 2507 2382 2187 1483 1358 1279 1094 1036 996 843 840 890 882 830 791 774 738 664 673 662 592 588 551 528 513 487 487 491 458 459 446 445 438 440 432 438 417 377 369 358 351 344 335 331 330 315 268 252 235 253 215 248 241 226 219 208 192 180 175 151 140 134 120 109 111 124 119 97 96 88 40 69 74 84 76 34 23 23 27 27 71 82 59 -9999 
1460 1518 1467 1567 1513 1415 1382 1644 1770 1472 1437 1523 1643 1810 2346 2342 2521 2303 2083 1888 1607 1482 1375 1280 1212 1212 1307 1375 1576 1699 1863 2049 1918 1804 1516 1416 1349 1122 1042 945 848 838 777 807 762 695 735 708 664 614 634 596 567 520 490 484 466 453 458 440 423 420 431 418 417 410 401 395 387 371 352 349 346 335 329 319 307 307 284 263 281 220 195 256 215 213 206 196 194 182 173 160 149 135 120 117 109 102 89 92 87 39 93 89 77 97 77 19 16 20 23 28 23 19 -9999 
1351 1443 1401 1426 1535 1467 1200 1399 1529 1257 1383 1381 1530 1616 1849 2015 1952 1821 1744 1655 1489 1384 1320 1239 1220 1232 1295 1345 1520 1635 1736 1823 1793 1690 1463 1377 1288 1125 1052 997 1002 893 775 715 775 689 692 659 627 608 579 576 540 516 472 464 450 447 438 430 412 413 409 412 405 412 393 391 378 363 351 354 356 346 336 329 323 311 310 281 286 275 261 184 233 224 212 202 174 191 181 157 166 149 133 125 117 113 70 45 38 36 58 56 87 76 82 57 144 23 24 22 47 72 -9999 
1375 1297 1470 1525 1383 1295 1251 1317 1449 1257 1298 1318 1439 1479 1645 1760 1769 1666 1585 1566 1421 1350 1301 1244 1216 1245 1267 1333 1486 1561 1617 1680 1596 1615 1461 1390 1266 1070 1032 1046 912 888 770 723 739 705 650 656 609 597 535 545 533 531 460 443 436 433 428 405 401 397 385 381 382 377 386 377 363 354 356 362 360 344 340 338 337 320 309 307 288 285 268 266 259 247 232 196 135 202 146 171 182 146 65 91 60 59 95 63 72 72 52 50 43 39 41 102 206 26 33 33 70 38 -9999 
1252 1303 1372 1513 1263 1147 1294 1262 1311 1228 1232 1258 1218 1347 1460 1554 1555 1536 1479 1447 1349 1307 1291 1293 1275 1256 1265 1273 1340 1393 1452 1432 1473 1208 1384 1341 1342 1358 1266 1103 983 883 826 780 822 674 644 656 620 603 587 555 531 506 459 476 414 426 407 407 380 391 383 360 369 362 374 369 358 346 350 359 356 347 371 355 343 330 336 293 298 285 264 255 268 246 259 236 225 211 189 177 93 93 158 141 128 114 45 113 103 56 60 52 40 41 36 100 54 28 40 22 19 36 -9999 
1291 1173 1300 1378 1218 1005 1030 1050 1125 1282 1187 1129 1073 1132 1203 1246 1290 1314 1323 1338 1344 1329 1290 1297 1333 1365 1283 1279 1299 1417 1400 1352 1272 1170 1390 1405 1480 1373 1252 1075 905 864 757 700 681 618 606 599 619 560 586 548 517 504 480 469 437 418 406 387 387 367 375 359 354 347 359 355 343 330 347 346 346 350 363 352 353 347 339 321 307 299 253 248 260 247 197 231 212 178 207 149 140 147 171 161 146 134 70 127 120 117 117 98 36 45 36 51 64 29 113 225 41 17 -9999 
1207 1077 1266 1315 1246 1172 1010 1074 1061 1186 1229 1129 881 1010 1176 1136 1195 1275 1278 1303 1421 1391 1376 1449 1314 1438 1348 1289 1329 1353 1356 1297 1099 1097 1238 1226 1414 1247 1183 1250 991 1046 888 826 739 727 693 672 604 591 546 536 530 524 497 476 461 441 437 418 393 389 332 348 329 315 314 321 304 319 341 342 370 371 379 357 342 340 323 289 306 320 289 277 239 288 291 266 265 240 207 215 206 177 79 126 160 152 131 48 49 123 118 118 40 61 39 38 45 107 177 112 131 20 -9999 
-9999 1083 1332 1195 1216 965 1075 1098 931 1195 1171 1059 831 1020 942 942 1040 1120 1152 1293 1532 1574 1535 1551 1573 1519 1453 1413 1375 1317 1425 1149 987 926 910 973 1036 986 1136 1158 1188 1106 1043 853 838 842 762 710 597 607 622 518 517 500 445 472 477 386 393 377 382 397 381 371 359 320 290 280 302 338 365 377 373 380 368 391 350 367 371 358 310 338 308 321 265 311 296 292 285 239 221 221 175 199 194 88 43 63 35 53 30 29 61 124 56 55 36 45 99 275 131 128 104 21 -9999 
-9999 1285 1261 992 1034 954 892 1149 1087 934 904 930 839 901 838 952 886 1221 1169 1292 1483 1595 1646 1654 1570 1679 1620 1464 1335 1303 1325 1048 901 882 828 880 895 931 946 1062 1407 1207 1051 890 823 705 691 781 726 739 672 647 585 559 464 469 436 412 414 418 382 389 390 375 355 328 337 268 357 358 386 393 394 387 397 407 388 363 374 392 379 402 381 312 271 295 292 308 228 260 226 204 195 127 88 97 183 148 157 160 131 84 30 26 29 35 34 45 117 150 103 56 13 11 -9999 
-9999 1290 1121 853 893 834 795 1049 900 696 784 702 726 799 765 905 847 1084 1227 1286 1462 1639 1617 1777 1696 1672 1604 1526 1436 1355 1323 1163 1007 896 813 805 832 839 951 1035 1191 1112 990 876 838 675 661 630 609 675 763 644 635 556 472 499 446 451 413 365 339 311 320 324 350 318 293 273 306 307 275 358 382 434 433 421 424 358 366 416 485 546 597 420 405 339 322 279 300 300 301 195 255 201 128 71 163 190 174 161 167 55 31 31 34 26 29 25 103 70 58 39 21 12 -9999 
-9999 1051 977 734 730 709 825 983 1028 685 660 500 541 598 724 899 987 1096 1168 1190 1263 1211 1320 1390 1531 1480 1444 1330 1256 1051 1075 870 861 893 971 856 742 774 804 876 1015 1251 1188 977 970 769 745 691 519 610 616 636 615 592 493 493 486 503 480 352 362 325 338 291 287 381 297 254 288 267 269 331 346 401 434 425 403 362 382 398 462 533 457 492 536 425 457 357 332 302 204 278 260 271 153 102 52 56 84 67 70 115 74 52 37 25 24 29 32 32 65 31 32 12 -9999 
-9999 704 653 586 585 525 800 828 758 717 693 529 549 710 821 946 921 993 1003 1094 1195 1099 1131 1425 1524 1354 1212 1244 1276 1115 950 920 829 758 816 869 764 714 755 827 1071 1255 1160 1043 980 794 777 698 550 523 493 621 589 573 493 463 440 498 509 405 363 398 345 370 347 284 283 272 262 301 334 354 349 383 400 416 432 409 427 508 618 631 753 624 486 449 527 353 364 381 372 283 219 152 140 117 160 117 87 75 54 51 48 48 65 64 89 59 22 21 54 39 37 15 -9999 
-9999 571 550 517 483 540 796 737 712 635 603 523 602 751 825 835 782 1025 1039 1097 1031 1103 977 1446 1533 1328 1154 1195 1189 1201 993 1044 957 815 729 815 714 801 861 881 1049 1055 1048 969 936 773 724 628 557 487 595 417 441 540 445 382 368 439 513 478 438 413 349 377 371 383 357 237 234 283 306 294 291 423 425 418 397 403 462 584 677 783 966 690 597 546 467 406 532 503 272 226 207 271 204 184 198 126 95 113 102 73 72 45 72 52 45 33 23 16 40 41 39 68 -9999 
-9999 525 491 416 490 592 938 859 738 414 501 335 642 575 715 625 699 866 911 928 821 959 1090 1280 1421 1327 1258 1027 1070 1140 1127 885 905 879 722 656 655 743 739 875 929 991 942 924 938 776 753 717 648 531 416 487 383 453 434 358 392 437 503 392 401 403 341 355 373 426 331 271 239 232 289 361 397 387 408 417 412 426 445 507 603 809 770 823 662 514 501 467 507 551 313 274 242 330 253 234 221 97 131 136 136 68 69 58 31 21 24 17 18 18 19 22 26 26 -9999 
-9999 510 466 418 388 520 740 810 590 482 335 316 563 463 602 693 742 770 771 806 861 1116 1147 1320 1335 1415 1062 1050 1076 1177 1054 940 796 780 760 678 723 685 747 758 847 984 933 895 874 823 797 807 653 594 517 415 417 334 305 300 309 376 340 363 329 308 258 340 449 429 383 279 207 182 244 285 311 321 325 302 333 333 382 537 570 532 623 808 886 715 683 389 430 423 558 535 458 341 423 335 110 110 197 153 214 133 162 111 41 30 26 25 34 43 22 19 15 15 -9999 
-9999 499 473 416 391 437 597 711 583 434 320 408 366 361 438 514 563 592 610 663 828 1162 1355 1128 1188 1385 1123 999 1064 1163 1139 1149 950 795 780 713 656 715 663 645 792 904 925 921 897 882 873 860 782 749 551 495 410 420 465 504 473 362 252 329 369 360 326 270 423 361 308 234 193 215 284 358 370 362 394 348 428 433 429 544 631 576 705 730 782 786 486 510 547 589 722 581 464 470 377 276 149 225 247 342 425 373 287 200 169 97 66 51 82 123 111 90 77 42 -9999 
-9999 410 385 371 298 513 438 507 317 279 299 372 521 612 742 902 954 957 970 948 1129 1207 1149 1017 1002 1225 1112 1111 1037 1030 1076 1124 1114 896 817 763 720 683 634 625 855 896 900 858 882 858 893 801 844 849 677 634 468 420 563 545 447 386 324 227 300 342 252 239 278 392 362 309 280 191 296 426 449 433 492 437 500 493 541 670 712 738 819 722 901 638 551 614 569 620 740 747 498 522 541 350 170 259 360 436 458 348 132 290 310 361 371 373 363 373 171 47 106 27 -9999 
-9999 393 348 297 291 381 349 233 211 249 389 406 611 755 906 925 997 964 904 923 1035 1146 1089 962 967 1128 1182 1090 982 935 1032 1078 1152 1018 768 775 659 624 576 611 764 787 841 831 932 839 906 848 828 844 782 787 674 511 661 597 534 384 344 242 192 246 260 327 251 275 354 313 156 278 286 379 386 423 567 495 540 546 512 502 621 634 837 795 934 728 709 885 747 660 669 532 587 506 506 528 430 368 386 326 325 254 279 262 219 214 191 209 201 162 36 25 48 24 -9999 
-9999 427 280 266 338 469 361 196 247 346 482 477 575 748 867 926 948 764 766 821 918 1001 970 829 895 1019 1286 1112 990 1017 774 799 972 1085 1019 860 707 588 585 555 712 909 836 691 682 701 752 774 726 771 812 829 747 705 682 695 538 439 368 299 246 196 203 181 190 262 281 296 162 220 250 275 359 360 477 475 451 459 414 514 555 506 625 788 936 960 989 819 732 686 626 521 485 497 489 517 453 417 358 340 314 276 277 240 154 102 118 56 69 30 28 33 36 24 -9999 
-9999 336 203 205 252 211 160 247 413 454 556 549 707 763 715 521 655 732 636 704 968 948 919 840 1079 993 1118 1071 901 737 697 751 782 932 1125 897 773 640 601 583 752 846 898 777 762 676 717 842 737 631 721 810 698 725 597 572 622 481 378 356 287 242 215 180 180 196 237 240 174 158 256 299 340 351 537 440 387 398 393 433 481 445 572 748 909 884 906 808 631 564 546 525 514 523 541 498 505 546 477 281 302 342 250 143 130 82 108 45 45 39 39 31 41 41 -9999 
-9999 192 139 243 234 151 181 345 426 529 658 683 617 735 618 574 713 654 558 675 892 793 761 969 1050 875 808 877 826 643 609 691 698 807 1105 1103 1033 704 649 528 874 786 867 848 859 804 693 792 822 751 586 748 689 555 441 457 529 615 631 602 463 467 321 311 259 215 230 145 161 179 262 396 423 443 414 468 340 293 381 350 314 359 483 618 770 741 658 747 682 616 432 506 532 549 539 473 497 458 457 331 357 335 180 254 127 147 113 78 133 102 45 46 57 96 -9999 
-9999 170 107 328 236 128 176 349 449 533 530 550 536 647 480 623 622 477 826 886 885 499 743 777 893 788 705 626 563 413 417 532 557 730 897 949 943 680 637 550 832 768 816 739 760 794 574 715 661 694 725 501 519 520 502 428 449 543 529 468 576 504 400 345 334 299 231 162 160 207 289 418 495 367 348 334 324 320 305 289 347 427 483 654 877 633 585 595 602 672 536 425 533 437 432 453 448 459 474 421 358 359 311 373 234 282 213 136 167 106 60 90 97 148 -9999 
-9999 236 68 293 74 179 349 315 289 258 354 493 574 524 320 575 484 456 858 781 736 606 826 728 776 688 651 555 569 570 362 440 477 579 697 920 954 609 602 490 840 791 744 839 780 700 701 575 680 596 722 443 443 443 507 418 531 464 437 426 495 501 467 438 419 378 310 211 216 214 294 432 439 419 361 328 305 280 260 268 334 371 495 578 802 525 499 542 484 539 500 501 348 324 475 462 437 456 455 466 468 424 380 377 360 328 241 159 248 269 159 161 291 297 -9999 
-9999 103 101 127 157 316 333 285 195 353 431 444 496 456 289 591 450 493 597 587 545 654 702 786 611 593 606 475 493 426 501 317 572 621 786 821 872 567 523 516 708 823 729 774 830 722 723 741 656 641 509 395 393 387 485 409 509 429 351 371 393 427 526 376 447 521 392 268 203 340 372 399 320 424 254 275 346 288 325 298 239 355 441 559 507 542 539 509 485 593 456 376 423 316 425 465 462 457 415 438 440 432 381 382 403 362 355 331 177 129 118 250 373 374 -9999 
-9999 33 33 47 316 233 284 246 224 307 306 429 416 306 353 362 291 377 572 708 492 426 581 458 482 382 512 447 356 353 433 309 562 818 628 678 773 489 436 540 745 861 733 572 735 761 666 667 716 475 595 498 557 487 372 458 529 408 332 395 423 362 453 385 378 559 387 322 140 245 313 297 355 353 255 288 379 281 317 357 253 324 464 546 446 462 437 534 413 501 470 416 304 295 344 422 430 439 406 424 412 402 411 392 370 386 354 199 151 208 191 243 330 439 -9999 
-9999 14 97 135 213 101 149 267 269 226 391 344 220 283 451 321 242 332 556 471 393 398 568 290 342 372 499 455 391 259 264 332 845 865 860 612 708 479 405 541 764 774 804 700 546 688 709 598 691 590 498 711 680 626 468 342 338 393 299 386 401 294 426 309 427 523 423 332 150 162 296 268 336 345 278 256 252 281 317 271 254 296 374 433 364 283 278 321 405 381 294 427 204 426 425 442 467 471 442 364 358 373 455 446 404 428 393 281 253 298 405 433 432 459 -9999 
-9999 47 69 78 149 135 79 208 239 283 301 192 313 398 289 195 335 485 558 504 320 385 469 263 342 375 591 500 445 276 260 379 719 741 803 518 580 542 408 591 749 658 688 594 442 621 670 612 597 628 641 502 495 631 374 366 331 320 292 275 366 263 374 312 381 436 382 352 215 150 144 170 302 367 321 293 242 273 306 240 298 269 384 382 319 361 294 452 405 293 207 348 185 395 374 351 434 468 435 363 333 353 401 340 485 458 481 496 422 424 456 448 437 473 -9999 
-9999 5 8 30 112 21 78 135 99 227 259 167 304 245 151 301 449 430 401 434 313 356 379 317 627 592 485 407 541 184 398 447 448 583 659 363 457 528 456 488 666 646 675 626 613 476 638 677 613 610 617 412 448 610 495 421 308 277 298 280 381 265 350 378 297 306 328 388 342 278 196 105 224 293 271 273 251 264 281 164 307 282 395 304 300 399 269 341 377 311 297 297 317 343 324 313 356 433 398 336 321 348 369 361 429 475 502 527 546 512 417 421 438 457 -9999 
-9999 0 0 0 26 32 65 33 163 147 227 181 284 153 203 332 443 373 400 256 226 276 225 439 383 603 381 440 574 193 337 301 460 657 704 325 487 565 410 334 631 652 682 580 572 549 600 679 452 539 504 485 364 419 480 486 337 393 282 263 299 261 264 289 314 313 366 396 330 276 225 139 132 87 208 374 421 280 273 161 171 197 302 323 242 240 208 307 280 213 125 169 200 275 293 229 280 307 334 300 246 217 198 265 229 285 277 462 463 348 345 451 355 453 -9999 
-9999 0 0 0 0 19 6 57 51 143 144 122 139 204 287 391 343 230 202 190 163 203 164 290 401 552 321 401 525 269 197 256 539 668 570 411 268 372 237 400 607 552 624 636 510 401 468 450 478 399 430 469 541 430 423 432 438 318 344 278 255 258 271 277 284 361 346 274 367 337 326 330 252 200 261 285 254 284 286 182 153 210 292 277 320 318 224 229 249 185 117 143 214 189 241 235 212 283 183 281 251 259 248 230 249 291 230 390 368 316 169 395 244 364 -9999 
-9999 0 0 0 0 0 2 8 46 57 35 137 178 199 131 230 219 239 239 312 243 199 242 395 447 412 358 401 380 233 152 286 374 615 571 358 237 432 320 550 594 554 626 627 634 398 422 584 557 365 461 522 529 482 318 449 547 288 255 275 265 278 300 381 312 393 282 213 306 286 312 308 287 173 286 270 255 243 255 179 176 201 266 255 260 266 254 153 232 137 127 154 202 236 183 199 207 218 161 223 212 210 225 166 193 223 227 186 222 229 145 116 91 153 -9999 
-9999 0 0 0 0 0 0 0 11 9 55 94 137 191 91 175 235 221 207 248 135 186 285 282 398 262 377 326 311 176 201 345 336 442 545 235 288 433 208 364 596 404 595 592 517 362 391 510 459 515 509 326 489 417 385 360 499 346 364 263 258 348 309 267 290 272 234 143 135 238 254 213 238 92 270 274 265 230 272 266 276 219 134 207 100 192 155 109 185 171 102 195 192 187 183 195 181 188 187 175 166 178 154 157 156 165 192 153 144 188 203 108 95 213 -9999 
-9999 0 0 0 0 0 0 0 0 0 37 15 76 57 131 135 207 163 99 211 84 178 338 192 326 286 361 278 155 136 199 253 391 511 420 213 434 425 209 235 503 372 412 432 434 474 265 266 372 439 487 430 376 410 340 407 285 292 257 247 247 258 267 272 271 278 167 148 133 128 127 160 132 140 283 260 247 229 269 211 254 260 145 171 159 122 140 97 183 185 127 161 154 182 157 186 178 175 150 184 170 138 133 134 137 152 174 144 157 180 158 189 70 110 -9999 
-9999 0 0 0 0 0 0 0 0 0 0 7 24 30 38 128 144 106 88 98 196 151 82 272 296 243 256 228 135 152 230 202 468 500 304 238 469 377 190 200 436 342 336 447 388 501 484 472 252 261 380 417 281 457 384 361 281 268 251 245 254 274 258 268 262 269 262 250 99 88 96 141 91 74 320 266 267 226 219 199 198 228 209 206 217 143 90 108 166 162 145 148 132 154 141 166 175 147 130 123 130 134 135 145 152 116 118 105 90 89 86 86 83 98 -9999 
-9999 0 0 0 0 0 0 0 0 0 0 0 10 17 16 44 88 39 32 92 121 108 175 119 240 270 220 233 85 227 262 178 361 358 327 251 459 377 170 169 325 469 396 422 466 435 489 414 404 184 278 400 340 383 347 326 254 244 262 246 241 248 244 272 283 248 260 249 103 123 91 76 66 69 192 245 236 235 243 211 198 196 189 163 171 148 74 111 143 137 131 152 158 135 136 137 110 94 102 115 115 139 119 123 129 92 101 53 48 59 59 34 45 56 -9999 
-9999 0 0 0 0 0 0 0 0 0 0 0 0 6 13 16 15 15 73 102 96 97 168 53 180 129 247 191 115 185 174 186 195 81 136 274 295 310 154 159 284 355 419 414 427 424 277 339 379 321 174 201 217 311 218 201 232 267 241 281 248 262 257 236 239 239 243 243 247 205 140 65 112 119 211 202 212 229 301 211 199 193 189 165 120 131 95 78 131 139 115 112 130 151 158 135 122 134 126 137 119 133 137 153 113 78 39 45 41 37 27 46 27 31 -9999 
-9999 0 0 0 0 0 0 0 0 0 0 0 0 9 5 6 7 10 14 16 21 86 130 101 146 99 155 106 40 54 186 218 88 95 192 362 356 339 143 110 339 315 358 319 350 352 352 268 319 247 185 223 274 285 237 203 232 240 260 248 276 262 256 226 230 252 235 239 245 273 94 161 211 306 276 256 243 238 254 235 182 198 187 172 187 124 137 75 116 132 155 115 155 124 143 154 91 144 138 133 139 108 126 115 61 21 39 12 11 9 5 32 10 7 -9999 
-9999 0 0 0 0 0 0 0 0 0 0 0 0 7 10 5 6 8 12 8 10 34 41 85 92 101 85 37 148 50 170 212 101 134 291 230 324 350 154 98 165 310 314 305 318 315 250 287 219 289 147 161 246 234 207 200 215 217 220 220 252 253 268 228 223 165 109 114 49 58 209 259 312 270 273 291 238 179 210 194 169 143 196 191 177 129 127 84 117 123 141 109 118 139 121 138 101 92 102 103 116 75 89 146 78 12 21 7 5 17 6 7 10 5 -9999 
-9999 0 0 0 0 0 0 0 0 0 0 0 0 10 10 0 0 0 0 0 4 8 9 13 25 66 47 72 56 73 55 133 174 192 142 305 263 293 123 108 171 269 207 146 293 242 136 138 240 219 267 108 258 225 197 183 209 189 197 211 242 267 243 243 202 56 198 216 246 235 258 218 250 266 221 276 204 176 246 238 152 134 182 147 137 143 78 104 120 152 157 136 127 137 138 124 93 122 129 134 84 24 47 48 55 31 12 2 4 4 11 16 7 20 -9999 
-9999 0 0 0 0 0 0 0 0 0 0 0 0 0 0 0 0 0 0 0 0 0 0 0 9 14 16 55 82 81 84 19 142 100 238 275 270 292 129 62 101 263 173 79 201 255 98 185 247 269 257 100 210 231 188 275 204 201 198 215 275 289 274 254 58 185 207 204 204 207 206 285 197 137 159 199 176 221 204 237 173 137 117 96 74 95 111 127 134 141 149 151 142 131 95 124 84 112 99 115 30 31 13 7 6 16 14 18 7 8 0 0 0 0 -9999 
-9999 0 0 0 0 0 0 0 0 0 0 0 0 0 0 0 0 0 0 0 0 0 0 0 0 0 4 28 40 74 14 63 83 187 218 253 225 242 127 72 63 179 248 111 207 135 127 159 145 214 104 161 178 173 208 151 199 223 226 266 244 244 231 161 148 213 211 242 230 253 236 229 210 208 215 204 171 174 168 151 149 97 69 124 120 121 140 137 139 113 112 154 153 133 86 128 80 77 102 81 46 5 19 15 6 8 4 0 0 0 0 0 0 0 -9999 
-9999 0 0 0 0 0 0 0 0 0 0 0 0 0 0 0 0 0 0 0 0 0 0 0 0 0 0 0 4 9 61 98 157 159 200 214 213 205 112 82 65 219 179 114 115 116 45 56 34 144 71 120 164 166 198 209 210 182 202 232 201 194 213 88 48 233 217 219 175 201 195 221 262 227 140 205 172 169 163 144 159 132 91 131 132 127 106 126 108 110 116 129 113 120 80 102 70 91 58 28 29 25 11 13 7 0 0 0 0 0 0 0 0 0 -9999 
-9999 0 0 0 0 0 0 0 0 0 0 0 0 0 0 0 0 0 0 0 0 0 0 0 0 0 0 0 0 20 50 92 149 185 177 143 194 193 19 167 49 125 20 73 100 150 23 56 188 140 77 142 200 162 166 209 180 146 146 110 150 153 153 38 108 160 172 209 178 213 208 236 162 193 132 140 179 154 152 165 133 127 72 62 92 129 120 109 107 92 96 96 90 88 104 84 43 46 25 20 26 9 9 0 0 0 0 0 0 0 0 0 0 0 -9999 
-9999 0 0 0 0 0 0 0 0 0 0 0 0 0 0 0 0 0 0 0 0 0 0 0 0 0 0 0 0 0 39 75 145 162 146 158 113 155 140 157 84 133 14 17 31 110 51 43 61 17 118 93 122 154 96 143 136 99 139 134 133 137 120 35 123 142 165 201 159 146 177 142 137 128 137 124 152 132 138 153 105 114 135 67 139 132 135 126 113 109 102 84 77 73 91 116 66 36 16 10 13 6 0 0 0 0 0 0 0 0 0 0 0 0 -9999 
-9999 0 0 0 0 0 0 0 0 0 0 0 0 0 0 0 0 0 0 0 0 0 0 0 0 0 0 0 0 1 34 56 55 52 68 107 89 85 99 74 89 55 10 11 57 99 23 34 47 20 69 57 93 77 94 116 97 99 115 125 137 119 37 110 111 131 135 138 133 160 175 136 87 89 137 156 96 120 123 114 137 150 110 140 156 145 123 118 121 123 125 99 97 103 109 111 44 27 7 10 8 9 6 0 0 0 0 0 0 0 0 0 0 0 -9999 
-9999 0 0 0 0 0 0 0 0 0 0 0 0 0 0 0 0 0 0 0 0 0 0 0 0 0 0 0 0 0 19 35 60 47 39 31 59 9 4 0 4 7 9 8 30 34 6 37 34 38 48 52 66 70 85 99 104 90 69 101 102 24 113 93 112 120 117 119 127 141 134 119 85 76 64 50 87 99 106 106 109 144 117 138 112 144 126 121 117 134 113 119 121 116 106 65 59 46 27 11 13 6 0 0 0 0 0 0 0 0 0 0 0 0 -9999 
-9999 0 0 0 0 0 0 0 0 0 0 0 0 0 0 0 0 0 0 0 0 0 0 0 0 0 0 0 0 0 0 0 0 0 0 0 0 0 0 0 0 0 0 0 0 0 0 0 7 21 20 11 26 36 47 66 68 72 56 113 24 43 117 19 59 113 110 115 114 105 107 73 56 73 48 44 72 86 98 105 101 124 65 124 131 127 120 126 119 115 105 105 107 122 109 110 107 64 44 15 11 5 0 0 0 0 0 0 0 0 0 0 0 0 -9999 
-9999 0 0 0 0 0 0 0 0 0 0 0 0 0 0 0 0 0 0 0 0 0 0 0 0 0 0 0 0 0 0 0 0 0 0 0 0 0 0 0 0 0 0 0 0 0 0 0 0 0 5 11 19 25 33 44 49 41 62 26 51 88 104 123 24 93 66 30 58 86 84 45 49 53 44 40 75 98 110 98 106 109 50 35 80 120 120 122 129 127 96 105 107 100 106 107 94 92 59 43 46 40 47 0 0 0 0 0 0 0 0 0 0 0 -9999 
-9999 0 0 0 0 0 0 0 0 0 0 0 0 0 0 0 0 0 0 0 0 0 0 0 0 0 0 0 0 0 0 0 0 0 0 0 0 0 0 0 0 0 0 0 0 0 0 0 0 0 0 0 0 12 15 24 37 25 58 47 35 11 24 65 28 21 49 38 51 75 57 66 42 32 54 53 48 87 49 29 66 96 93 119 128 109 101 106 92 111 99 79 86 100 99 95 87 69 60 35 47 40 21 0 0 0 0 0 0 0 0 0 0 0 -9999 
-9999 0 0 0 0 0 0 0 0 0 0 0 0 0 0 0 0 0 0 0 0 0 0 0 0 0 0 0 0 0 0 0 0 0 0 0 0 0 0 0 0 0 0 0 0 0 0 0 0 0 0 0 0 0 0 0 0 2 0 11 15 10 8 24 20 22 26 10 41 51 58 34 53 28 33 34 18 18 19 42 82 88 88 57 97 100 91 81 90 100 91 88 84 90 86 80 76 54 54 36 47 31 28 0 0 0 0 0 0 0 0 0 0 0 -9999 
-9999 -9999 -9999 -9999 -9999 -9999 -9999 -9999 -9999 -9999 -9999 -9999 -9999 -9999 -9999 -9999 -9999 -9999 -9999 -9999 -9999 -9999 -9999 -9999 -9999 -9999 -9999 -9999 -9999 -9999 -9999 -9999 -9999 -9999 -9999 -9999 -9999 -9999 -9999 -9999 -9999 -9999 -9999 -9999 -9999 -9999 -9999 -9999 -9999 -9999 -9999 -9999 -9999 -9999 -9999 -9999 -9999 -9999 -9999 -9999 -9999 -9999 -9999 -9999 -9999 -9999 -9999 -9999 -9999 -9999 -9999 -9999 -9999 -9999 -9999 -9999 -9999 -9999 -9999 -9999 -9999 -9999 -9999 -9999 -9999 -9999 -9999 -9999 -9999 -9999 -9999 -9999 -9999 -9999 -9999 -9999 -9999 -9999 -9999 -9999 -9999 -9999 -9999 -9999 -9999 -9999 -9999 -9999 -9999 -9999 -9999 -9999 -9999 -9999 -9999 
