ncols         151
nrows         140
xllcorner     73273
yllcorner     9106209
cellsize      1342
NODATA_value  -9999
46 69 66 27 41 23 26 39 77 74 57 72 31 31 41 28 25 20 30 35 35 30 25 27 25 32 33 24 26 25 31 31 34 31 29 28 25 23 20 18 21 17 13 21 11 8 7 19 12 17 17 19 18 18 16 15 13 15 14 19 16 18 15 15 18 15 15 17 12 9 8 9 8 8 5 3 3 3 2 1 0 1 2 0 0 1 0 -1 1 2 3 2 5 0 3 8 2 3 2 3 2 2 2 1 3 -9999 -9999 -9999 -9999 -9999 -9999 -9999 -9999 -9999 -9999 -9999 -9999 -9999 -9999 -9999 -9999 -9999 -9999 -9999 -9999 -9999 -9999 -9999 -9999 -9999 -9999 -9999 -9999 -9999 -9999 -9999 -9999 -9999 -9999 -9999 -9999 -9999 -9999 -9999 -9999 -9999 -9999 -9999 -9999 -9999 -9999
52 44 31 22 24 36 23 64 59 72 78 52 40 50 42 32 23 26 20 35 44 43 36 26 31 32 33 26 27 31 33 35 33 31 31 29 26 22 23 21 20 18 19 15 21 20 13 16 21 28 26 29 22 19 17 20 16 16 18 17 17 22 17 18 18 20 17 17 12 11 8 8 7 6 9 8 6 3 7 4 3 1 4 6 0 5 2 5 1 1 2 1 3 4 7 8 5 2 2 3 4 2 0 1 4 -9999 -9999 -9999 -9999 -9999 -9999 -9999 -9999 -9999 -9999 -9999 -9999 -9999 -9999 -9999 -9999 -9999 -9999 -9999 -9999 -9999 -9999 -9999 -9999 -9999 -9999 -9999 -9999 -9999 -9999 -9999 -9999 -9999 -9999 -9999 -9999 -9999 -9999 -9999 -9999 -9999 -9999 -9999 -9999 -9999 -9999
36 28 25 39 27 27 32 41 86 96 80 49 81 56 49 36 30 23 21 34 50 34 56 49 35 42 48 42 49 32 34 38 39 32 31 30 28 24 24 22 20 21 18 15 30 27 16 25 25 30 25 27 24 27 18 26 17 16 19 18 19 19 20 16 16 17 16 17 15 13 10 11 9 9 8 9 10 6 7 6 6 4 4 4 1 2 1 1 3 7 7 10 5 5 12 9 5 4 1 3 1 5 4 3 2 4 -9999 -9999 -9999 -9999 -9999 -9999 -9999 -9999 -9999 -9999 -9999 -9999 -9999 -9999 -9999 -9999 -9999 -9999 -9999 -9999 -9999 -9999 -9999 -9999 -9999 -9999 -9999 -9999 -9999 -9999 -9999 -9999 -9999 -9999 -9999 -9999 -9999 -9999 -9999 -9999 -9999 -9999 -9999 -9999 -9999
45 28 32 60 25 27 51 40 60 83 82 69 99 81 88 53 28 36 21 19 26 33 58 68 63 55 55 55 56 37 38 39 34 33 36 27 26 23 28 24 28 26 20 29 32 31 30 21 30 25 30 25 25 21 25 23 20 17 21 19 19 23 19 22 19 17 18 15 15 16 18 14 13 13 11 13 10 10 8 8 7 7 5 5 8 2 2 4 3 8 3 8 7 8 9 3 4 4 4 6 4 5 7 5 4 3 6 -9999 -9999 -9999 -9999 -9999 -9999 -9999 -9999 -9999 -9999 -9999 -9999 -9999 -9999 -9999 -9999 -9999 -9999 -9999 -9999 -9999 -9999 -9999 -9999 -9999 -9999 -9999 -9999 -9999 -9999 -9999 -9999 -9999 -9999 -9999 -9999 -9999 -9999 -9999 -9999 -9999 -9999 -9999 -9999
30 30 58 52 43 37 40 34 47 71 88 71 86 104 72 44 69 57 23 23 26 38 39 79 74 55 65 65 58 68 39 40 47 38 34 29 35 31 32 25 28 26 27 39 38 29 35 29 33 34 36 31 32 23 20 24 26 16 19 20 21 20 21 21 20 18 15 17 16 16 16 13 12 10 11 11 11 13 12 8 9 7 7 7 5 4 3 4 3 3 4 6 5 4 9 9 6 5 5 5 6 6 9 3 4 4 4 5 -9999 -9999 -9999 -9999 -9999 -9999 -9999 -9999 -9999 -9999 -9999 -9999 -9999 -9999 -9999 -9999 -9999 -9999 -9999 -9999 -9999 -9999 -9999 -9999 -9999 -9999 -9999 -9999 -9999 -9999 -9999 -9999 -9999 -9999 -9999 -9999 -9999 -9999 -9999 -9999 -9999 -9999 -9999
31 43 61 48 48 48 53 47 93 111 91 87 81 103 63 48 71 45 50 31 31 32 42 56 78 62 70 75 71 63 71 50 43 45 40 37 40 34 36 31 37 36 38 43 39 39 44 43 38 40 36 33 27 23 25 27 23 22 24 21 22 22 24 23 20 20 21 18 20 17 19 15 14 13 17 15 13 13 16 10 11 9 7 6 9 5 4 5 4 4 7 9 6 5 10 15 7 5 7 11 6 6 9 5 4 5 4 4 1 6 -9999 -9999 -9999 -9999 -9999 -9999 -9999 -9999 -9999 -9999 -9999 -9999 -9999 -9999 -9999 -9999 -9999 -9999 -9999 -9999 -9999 -9999 -9999 -9999 -9999 -9999 -9999 -9999 -9999 -9999 -9999 -9999 -9999 -9999 -9999 -9999 -9999 -9999 -9999 -9999 -9999
48 60 45 69 71 35 134 78 107 129 87 99 98 95 66 64 60 72 74 39 37 35 58 68 85 74 74 94 67 79 60 56 48 51 47 47 45 39 37 44 49 56 59 53 49 49 50 48 45 34 41 35 35 29 30 31 34 25 24 28 22 25 26 25 28 27 25 26 21 19 20 23 16 16 13 17 14 13 14 12 10 9 12 9 10 5 5 6 5 3 8 5 5 6 11 10 5 8 8 7 12 5 11 10 9 6 3 3 5 7 5 -9999 -9999 -9999 -9999 -9999 -9999 -9999 -9999 -9999 -9999 -9999 -9999 -9999 -9999 -9999 -9999 -9999 -9999 -9999 -9999 -9999 -9999 -9999 -9999 -9999 -9999 -9999 -9999 -9999 -9999 -9999 -9999 -9999 -9999 -9999 -9999 -9999 -9999 -9999 -9999
40 79 73 39 37 50 53 38 69 113 84 179 211 193 144 98 52 61 41 40 35 50 61 72 71 91 90 74 53 89 77 51 59 52 54 54 53 45 65 60 68 62 78 74 72 59 61 61 49 47 47 44 43 36 35 32 30 25 26 25 25 26 30 28 27 24 25 24 23 23 21 22 16 21 17 19 17 16 15 16 11 13 9 8 10 9 7 6 6 6 6 6 6 8 9 14 9 10 8 6 9 16 7 7 6 6 9 8 4 4 9 5 5 -9999 -9999 -9999 -9999 -9999 -9999 -9999 -9999 -9999 -9999 -9999 -9999 -9999 -9999 -9999 -9999 -9999 -9999 -9999 -9999 -9999 -9999 -9999 -9999 -9999 -9999 -9999 -9999 -9999 -9999 -9999 -9999 -9999 -9999 -9999 -9999 -9999 -9999
76 70 42 56 32 54 67 57 49 56 57 59 92 102 68 67 78 42 32 61 70 62 80 61 86 107 89 82 60 90 66 55 58 59 62 53 55 54 52 64 77 76 73 83 74 69 62 66 57 48 51 44 48 40 41 41 36 32 30 29 34 28 24 27 28 29 28 26 24 23 23 23 19 21 20 21 21 18 20 15 15 16 11 15 10 9 7 8 9 8 6 6 7 5 7 13 10 9 11 9 9 15 15 15 6 5 4 5 2 7 2 2 1 5 0 -9999 -9999 -9999 -9999 -9999 -9999 -9999 -9999 -9999 -9999 -9999 -9999 -9999 -9999 -9999 -9999 -9999 -9999 -9999 -9999 -9999 -9999 -9999 -9999 -9999 -9999 -9999 -9999 -9999 -9999 -9999 -9999 -9999 -9999 -9999 -9999
61 53 39 56 74 88 63 66 74 63 58 59 78 94 136 197 277 164 53 39 70 47 58 81 79 87 87 87 57 71 67 53 55 67 57 62 54 54 73 84 69 91 95 91 75 69 71 80 56 56 58 52 48 43 38 42 39 32 31 34 29 29 35 27 30 30 26 31 28 31 33 26 31 29 23 26 21 19 18 17 16 19 16 16 12 11 10 9 7 9 8 9 9 9 8 12 11 9 10 9 13 9 11 6 7 6 6 6 6 3 3 4 2 -1 0 -9999 -9999 -9999 -9999 -9999 -9999 -9999 -9999 -9999 -9999 -9999 -9999 -9999 -9999 -9999 -9999 -9999 -9999 -9999 -9999 -9999 -9999 -9999 -9999 -9999 -9999 -9999 -9999 -9999 -9999 -9999 -9999 -9999 -9999 -9999 -9999
48 48 66 70 64 80 81 103 111 100 75 97 73 101 101 101 101 159 216 66 30 42 69 59 94 89 91 97 72 62 55 56 63 52 56 69 56 61 63 103 108 118 96 105 103 82 83 54 57 66 61 56 49 51 44 43 42 42 35 33 30 30 40 31 28 34 26 31 29 32 36 39 30 25 26 27 24 22 21 18 18 19 22 15 13 13 12 11 14 12 12 9 10 9 7 11 11 11 15 11 16 7 9 10 8 9 12 10 6 7 3 5 4 2 2 -9999 -9999 -9999 -9999 -9999 -9999 -9999 -9999 -9999 -9999 -9999 -9999 -9999 -9999 -9999 -9999 -9999 -9999 -9999 -9999 -9999 -9999 -9999 -9999 -9999 -9999 -9999 -9999 -9999 -9999 -9999 -9999 -9999 -9999 -9999 -9999
71 71 68 75 77 91 90 101 251 151 110 140 156 132 101 101 101 101 101 135 102 67 37 78 70 93 100 63 72 62 63 58 79 82 62 65 95 96 85 84 115 116 108 114 103 93 64 72 74 76 64 59 62 52 54 60 51 43 35 35 37 44 33 35 38 34 37 31 34 33 30 33 29 28 26 26 42 27 26 23 20 23 26 18 14 12 17 16 23 15 10 11 11 7 9 11 11 10 12 17 16 8 8 16 9 7 9 4 5 5 5 6 2 6 3 4 -9999 -9999 -9999 -9999 -9999 -9999 -9999 -9999 -9999 -9999 -9999 -9999 -9999 -9999 -9999 -9999 -9999 -9999 -9999 -9999 -9999 -9999 -9999 -9999 -9999 -9999 -9999 -9999 -9999 -9999 -9999 -9999 -9999 -9999 -9999
92 94 92 76 71 84 109 137 258 207 123 310 182 257 191 101 101 101 101 114 119 116 95 59 86 87 88 68 83 87 85 150 74 102 62 81 105 104 122 79 110 103 113 113 95 78 92 97 92 81 74 72 68 61 64 63 54 47 38 41 34 43 36 49 44 38 34 43 43 40 38 39 35 33 30 32 27 29 29 24 25 23 20 20 25 17 23 21 21 15 15 13 10 12 13 12 11 14 9 11 16 8 11 13 7 7 11 6 5 5 3 3 3 3 4 5 -9999 -9999 -9999 -9999 -9999 -9999 -9999 -9999 -9999 -9999 -9999 -9999 -9999 -9999 -9999 -9999 -9999 -9999 -9999 -9999 -9999 -9999 -9999 -9999 -9999 -9999 -9999 -9999 -9999 -9999 -9999 -9999 -9999 -9999 -9999
89 94 116 155 225 107 237 151 301 416 297 401 142 101 101 101 101 101 101 101 167 227 93 45 96 100 85 79 90 130 169 107 143 82 59 98 131 95 153 122 113 114 106 104 99 102 115 82 93 90 83 79 76 74 67 66 50 45 41 41 37 46 44 34 51 57 39 45 42 42 36 35 39 33 34 34 31 33 32 27 25 23 30 19 30 25 23 18 18 19 21 13 16 11 16 18 17 14 17 21 11 13 9 9 8 6 6 4 4 4 3 6 3 4 5 3 -9999 -9999 -9999 -9999 -9999 -9999 -9999 -9999 -9999 -9999 -9999 -9999 -9999 -9999 -9999 -9999 -9999 -9999 -9999 -9999 -9999 -9999 -9999 -9999 -9999 -9999 -9999 -9999 -9999 -9999 -9999 -9999 -9999 -9999 -9999
84 121 282 327 282 398 314 203 340 694 625 168 101 101 101 107 143 101 101 101 101 112 120 79 83 86 89 112 123 176 236 196 112 69 59 91 176 188 185 144 156 117 95 81 98 113 92 84 99 96 81 83 77 79 72 61 58 47 43 49 46 31 48 44 49 43 45 54 43 43 41 42 44 36 42 39 41 42 36 29 27 30 25 35 29 20 26 23 27 25 16 18 12 15 13 14 16 16 13 12 12 14 10 8 6 5 4 3 2 1 3 3 3 8 4 5 -9999 -9999 -9999 -9999 -9999 -9999 -9999 -9999 -9999 -9999 -9999 -9999 -9999 -9999 -9999 -9999 -9999 -9999 -9999 -9999 -9999 -9999 -9999 -9999 -9999 -9999 -9999 -9999 -9999 -9999 -9999 -9999 -9999 -9999 -9999
83 115 350 225 317 449 418 316 554 585 498 252 146 128 182 180 624 149 101 347 101 101 90 79 81 84 89 115 95 87 111 115 135 125 74 72 82 131 187 148 169 127 90 154 131 200 152 105 108 103 83 89 83 74 60 49 43 50 64 64 54 45 50 51 53 55 58 47 45 44 44 39 42 39 39 46 39 39 38 49 33 52 28 31 34 36 25 34 26 25 21 14 16 12 13 17 16 14 16 17 13 7 6 7 5 5 3 2 3 1 13 2 4 6 4 3 -9999 -9999 -9999 -9999 -9999 -9999 -9999 -9999 -9999 -9999 -9999 -9999 -9999 -9999 -9999 -9999 -9999 -9999 -9999 -9999 -9999 -9999 -9999 -9999 -9999 -9999 -9999 -9999 -9999 -9999 -9999 -9999 -9999 -9999 -9999
93 127 190 297 304 663 604 406 705 502 420 266 101 101 200 242 408 279 169 202 123 101 128 194 129 95 159 165 88 108 110 122 166 108 124 120 96 132 128 180 110 95 95 204 143 187 185 125 110 162 131 91 80 81 77 89 55 74 49 58 46 49 50 47 51 50 59 54 57 56 47 48 47 44 46 46 49 40 42 45 36 54 30 36 38 32 27 30 26 25 20 16 19 19 15 16 12 18 16 15 11 6 6 6 5 5 5 2 5 1 1 2 6 3 2 4 -9999 -9999 -9999 -9999 -9999 -9999 -9999 -9999 -9999 -9999 -9999 -9999 -9999 -9999 -9999 -9999 -9999 -9999 -9999 -9999 -9999 -9999 -9999 -9999 -9999 -9999 -9999 -9999 -9999 -9999 -9999 -9999 -9999 -9999 -9999
103 117 173 408 522 803 822 731 695 638 429 362 101 101 200 243 448 298 178 184 182 139 198 238 118 143 151 187 116 136 173 145 166 170 121 122 155 140 160 160 153 136 108 263 236 250 194 131 130 173 135 86 88 86 77 82 56 93 96 102 111 86 60 71 69 53 68 57 58 60 58 56 55 58 57 56 51 49 47 36 35 44 35 39 36 39 45 31 38 23 21 18 19 14 19 18 16 23 17 13 8 10 6 7 4 5 4 3 2 3 2 3 4 2 4 3 -9999 -9999 -9999 -9999 -9999 -9999 -9999 -9999 -9999 -9999 -9999 -9999 -9999 -9999 -9999 -9999 -9999 -9999 -9999 -9999 -9999 -9999 -9999 -9999 -9999 -9999 -9999 -9999 -9999 -9999 -9999 -9999 -9999 -9999 -9999
130 115 170 369 605 1002 1112 1024 453 342 294 149 101 132 238 313 488 441 301 263 276 262 242 254 145 150 165 195 140 174 171 171 154 199 230 114 124 154 153 215 168 181 177 147 256 247 191 206 192 186 137 82 95 90 116 103 79 75 63 90 91 137 138 56 66 60 56 66 67 69 69 59 65 62 63 62 52 50 43 48 39 47 38 40 40 39 46 36 33 23 24 22 17 17 17 20 21 18 14 7 7 12 11 7 9 6 4 3 3 2 5 3 1 1 1 4 -9999 -9999 -9999 -9999 -9999 -9999 -9999 -9999 -9999 -9999 -9999 -9999 -9999 -9999 -9999 -9999 -9999 -9999 -9999 -9999 -9999 -9999 -9999 -9999 -9999 -9999 -9999 -9999 -9999 -9999 -9999 -9999 -9999 -9999 -9999
146 131 218 299 432 589 755 661 494 375 282 131 101 152 279 361 668 615 545 276 218 226 257 281 234 187 115 207 239 307 281 250 281 287 260 233 173 206 186 209 235 236 205 157 296 204 237 210 201 196 107 114 145 267 134 106 74 95 74 88 119 137 83 100 130 58 81 68 81 80 64 71 69 62 67 63 55 49 53 47 40 41 40 34 47 45 48 34 28 24 25 21 21 16 17 18 22 22 18 17 9 13 9 7 5 3 4 3 4 2 2 1 2 5 0 2 -9999 -9999 -9999 -9999 -9999 -9999 -9999 -9999 -9999 -9999 -9999 -9999 -9999 -9999 -9999 -9999 -9999 -9999 -9999 -9999 -9999 -9999 -9999 -9999 -9999 -9999 -9999 -9999 -9999 -9999 -9999 -9999 -9999 -9999 -9999
167 184 205 232 265 355 426 377 284 287 247 124 101 204 228 345 424 513 451 300 286 234 246 307 316 196 139 152 293 305 393 444 382 336 368 309 253 310 264 296 451 563 469 386 282 317 240 284 264 188 184 244 130 183 146 127 102 90 75 93 117 116 108 79 76 74 61 94 89 71 71 76 68 73 54 68 63 62 52 50 46 42 45 34 47 44 44 33 24 19 19 18 18 20 18 18 23 18 21 16 17 11 17 12 8 6 5 4 8 4 3 4 1 2 4 1 4 -9999 -9999 -9999 -9999 -9999 -9999 -9999 -9999 -9999 -9999 -9999 -9999 -9999 -9999 -9999 -9999 -9999 -9999 -9999 -9999 -9999 -9999 -9999 -9999 -9999 -9999 -9999 -9999 -9999 -9999 -9999 -9999 -9999 -9999
199 221 216 435 418 404 412 333 170 227 200 159 136 114 190 254 336 311 286 276 251 228 320 331 275 173 277 259 246 335 422 555 533 446 436 424 450 503 434 374 541 432 370 312 523 441 568 459 341 327 351 385 249 257 395 245 257 176 121 200 133 136 92 110 103 72 69 77 103 89 79 75 77 75 71 68 64 58 53 49 51 43 37 39 38 43 41 23 22 20 20 24 22 22 22 21 21 21 25 20 19 16 14 14 10 9 8 6 6 5 2 1 3 2 7 1 -1 -9999 -9999 -9999 -9999 -9999 -9999 -9999 -9999 -9999 -9999 -9999 -9999 -9999 -9999 -9999 -9999 -9999 -9999 -9999 -9999 -9999 -9999 -9999 -9999 -9999 -9999 -9999 -9999 -9999 -9999 -9999 -9999 -9999 -9999
415 309 280 492 567 414 299 252 253 251 175 130 101 101 206 248 261 268 269 266 271 277 334 411 347 258 293 326 333 296 430 459 583 582 618 481 480 532 545 490 418 429 466 445 467 519 512 458 436 508 487 438 343 397 453 424 421 171 116 161 163 163 136 111 97 90 99 102 143 232 220 137 86 68 68 62 64 59 52 48 47 45 38 39 37 41 38 22 22 21 16 19 19 19 22 21 21 24 24 21 17 16 14 15 16 12 10 9 11 7 5 5 5 2 2 4 -1 -9999 -9999 -9999 -9999 -9999 -9999 -9999 -9999 -9999 -9999 -9999 -9999 -9999 -9999 -9999 -9999 -9999 -9999 -9999 -9999 -9999 -9999 -9999 -9999 -9999 -9999 -9999 -9999 -9999 -9999 -9999 -9999 -9999 -9999
239 317 333 498 525 447 403 451 577 425 296 203 145 100 176 247 259 260 265 267 268 273 366 420 378 352 306 413 460 365 513 558 578 614 597 593 664 605 602 558 505 515 483 446 497 496 489 478 514 497 435 462 425 342 360 410 427 131 146 306 218 124 96 92 107 82 109 109 89 132 165 248 193 99 71 63 55 57 51 51 43 41 43 38 41 25 29 25 28 14 24 24 22 23 27 28 28 25 25 26 24 17 21 18 15 8 12 6 7 8 8 10 4 3 3 4 2 -9999 -9999 -9999 -9999 -9999 -9999 -9999 -9999 -9999 -9999 -9999 -9999 -9999 -9999 -9999 -9999 -9999 -9999 -9999 -9999 -9999 -9999 -9999 -9999 -9999 -9999 -9999 -9999 -9999 -9999 -9999 -9999 -9999 -9999
283 428 504 557 819 493 583 442 530 422 488 393 277 143 174 182 279 258 267 272 294 302 390 419 465 466 468 580 588 451 638 636 582 615 644 627 692 649 662 543 512 526 527 492 552 535 508 515 515 501 551 545 486 494 553 571 534 293 509 518 293 142 109 182 209 104 207 163 98 117 154 132 95 173 168 94 56 54 47 47 43 40 42 42 41 38 24 24 24 21 24 25 24 25 31 29 30 33 28 30 25 21 20 19 16 12 13 11 15 15 13 10 5 7 3 6 1 -9999 -9999 -9999 -9999 -9999 -9999 -9999 -9999 -9999 -9999 -9999 -9999 -9999 -9999 -9999 -9999 -9999 -9999 -9999 -9999 -9999 -9999 -9999 -9999 -9999 -9999 -9999 -9999 -9999 -9999 -9999 -9999 -9999 -9999
522 564 698 546 488 495 498 498 334 274 344 407 317 294 307 312 349 108 139 278 297 363 448 511 561 585 617 625 658 656 687 666 590 641 663 757 722 695 641 566 595 604 567 598 586 556 513 517 504 487 536 455 420 425 418 532 370 415 482 554 341 192 150 158 222 199 234 184 123 136 139 151 135 115 185 223 119 52 49 45 45 44 36 48 39 27 27 24 29 22 26 27 26 27 26 33 29 33 31 36 27 27 30 27 16 13 14 17 18 17 12 8 7 7 6 3 5 -9999 -9999 -9999 -9999 -9999 -9999 -9999 -9999 -9999 -9999 -9999 -9999 -9999 -9999 -9999 -9999 -9999 -9999 -9999 -9999 -9999 -9999 -9999 -9999 -9999 -9999 -9999 -9999 -9999 -9999 -9999 -9999 -9999 -9999
588 463 466 417 375 372 311 286 323 408 378 260 324 280 276 216 216 216 187 257 307 350 469 489 625 614 651 718 700 692 758 741 684 657 780 923 857 793 826 675 711 666 675 641 641 576 540 513 486 442 406 392 346 387 290 449 452 460 547 554 281 220 169 205 230 235 280 238 149 172 183 168 141 120 192 170 112 83 57 42 39 38 35 42 29 27 28 32 26 28 30 31 30 29 36 37 34 37 35 42 32 41 75 34 21 25 24 23 21 17 18 18 13 12 5 6 5 -2 -9999 -9999 -9999 -9999 -9999 -9999 -9999 -9999 -9999 -9999 -9999 -9999 -9999 -9999 -9999 -9999 -9999 -9999 -9999 -9999 -9999 -9999 -9999 -9999 -9999 -9999 -9999 -9999 -9999 -9999 -9999 -9999 -9999
619 631 384 378 392 276 255 247 292 418 249 313 216 290 293 216 216 314 349 309 383 431 599 610 621 642 633 668 735 769 766 784 754 753 961 1078 1248 1071 1058 867 820 796 776 763 694 601 538 522 488 448 416 378 365 359 322 406 449 440 463 554 525 404 248 293 292 368 354 348 265 281 283 186 142 202 287 246 91 81 44 39 43 37 35 31 30 27 28 29 28 30 34 35 32 37 38 51 46 43 49 51 46 48 152 162 34 32 32 27 22 21 23 27 24 18 14 6 3 4 -9999 -9999 -9999 -9999 -9999 -9999 -9999 -9999 -9999 -9999 -9999 -9999 -9999 -9999 -9999 -9999 -9999 -9999 -9999 -9999 -9999 -9999 -9999 -9999 -9999 -9999 -9999 -9999 -9999 -9999 -9999 -9999 -9999
652 512 438 462 331 297 268 240 268 216 216 216 216 243 252 216 219 303 338 342 412 484 575 605 660 679 680 667 715 752 800 857 872 974 1140 1483 1606 1607 1332 1130 972 963 907 845 763 672 623 581 455 563 446 384 341 375 362 384 435 504 542 651 504 360 235 335 390 424 419 351 366 287 304 287 192 214 209 155 65 88 52 51 41 35 33 32 30 32 30 31 31 30 36 40 40 40 44 43 47 47 49 43 41 91 153 199 41 33 31 30 22 26 28 36 31 25 23 9 8 6 -1 -9999 -9999 -9999 -9999 -9999 -9999 -9999 -9999 -9999 -9999 -9999 -9999 -9999 -9999 -9999 -9999 -9999 -9999 -9999 -9999 -9999 -9999 -9999 -9999 -9999 -9999 -9999 -9999 -9999 -9999 -9999 -9999
609 495 409 348 301 300 299 352 286 235 216 216 216 216 216 216 252 295 333 375 405 482 557 615 666 646 677 684 744 771 797 854 925 1074 1366 1679 1824 1623 1515 1268 1194 1125 977 882 789 675 642 725 584 539 500 388 405 391 382 409 477 588 629 443 364 349 360 457 493 555 591 714 601 503 356 359 303 173 144 157 100 61 77 78 78 42 32 31 30 28 29 30 32 38 39 40 47 49 46 59 62 59 62 59 87 288 423 324 111 37 40 48 40 38 39 40 31 32 22 15 9 3 3 0 -9999 -9999 -9999 -9999 -9999 -9999 -9999 -9999 -9999 -9999 -9999 -9999 -9999 -9999 -9999 -9999 -9999 -9999 -9999 -9999 -9999 -9999 -9999 -9999 -9999 -9999 -9999 -9999 -9999 -9999 -9999
722 510 390 374 371 384 361 310 259 241 219 216 216 216 216 216 271 292 323 328 418 449 539 649 634 620 764 847 793 803 855 953 1065 1410 1620 1589 1590 1659 1740 1512 1328 1221 1026 845 750 705 630 714 793 589 483 444 534 470 424 406 444 600 653 600 437 345 384 458 626 790 888 1181 958 779 545 400 268 160 122 102 77 102 98 82 67 45 34 37 37 31 33 32 34 42 43 46 48 52 53 62 74 73 81 65 169 376 331 231 126 65 55 66 62 46 51 54 44 44 41 17 14 5 6 4 -9999 -9999 -9999 -9999 -9999 -9999 -9999 -9999 -9999 -9999 -9999 -9999 -9999 -9999 -9999 -9999 -9999 0 0 -9999 -9999 -9999 -9999 -9999 -9999 -9999 -9999 -9999 -9999 -9999 -9999
623 388 367 351 332 311 300 257 256 238 242 216 216 252 216 216 237 259 343 337 414 428 574 582 662 631 681 786 915 909 943 1108 1421 1291 1904 1578 1607 1843 1996 1729 1417 1311 1166 1131 895 879 775 721 905 639 615 635 675 549 462 434 467 537 629 537 483 418 420 462 682 783 1013 1597 1115 937 581 469 396 272 204 96 83 94 84 52 66 46 34 35 38 35 40 57 39 43 47 47 53 58 64 73 92 91 95 136 157 325 238 300 93 76 83 102 97 62 65 79 64 59 47 26 19 12 3 2 1 -9999 -9999 -9999 0 2 1 -9999 -9999 -9999 -9999 -9999 -9999 -9999 -9999 -9999 -9999 0 2 4 -9999 -9999 -9999 -9999 -9999 -9999 -9999 -9999 -9999 -9999 -9999
471 570 380 314 291 281 271 268 269 260 216 216 216 255 257 216 263 261 316 335 417 437 537 583 591 611 624 784 970 990 996 1199 1467 1847 1783 1572 1584 1754 1955 1734 1499 1396 1379 1274 1203 918 1034 942 1004 998 793 1288 1061 749 525 608 636 568 587 506 443 409 401 448 571 837 1084 1499 1262 920 563 511 399 205 151 137 104 74 69 67 44 34 57 45 38 58 59 48 58 82 71 56 67 69 69 85 103 109 123 148 190 253 181 146 129 110 169 152 128 126 140 109 90 86 63 44 37 32 9 6 3 -1 2 -2 2 2 4 -9999 -9999 -9999 -9999 -9999 -9999 -9999 -9999 -9999 -9999 0 4 6 3 -9999 -9999 -9999 -9999 -9999 -9999 -9999 -9999 -9999 -9999
658 509 334 313 300 282 270 264 264 259 243 216 221 409 311 267 279 310 368 315 410 487 584 556 509 564 703 815 870 974 973 1088 1209 1459 1594 1467 1535 1612 1670 1649 1510 1448 1327 1340 1172 1157 1180 1155 1131 1257 1098 1306 1049 1054 658 792 741 729 700 558 634 508 409 518 583 703 916 1049 972 864 585 560 396 213 188 207 232 79 58 54 46 52 69 55 44 56 52 52 61 56 71 67 73 74 76 90 107 119 139 160 197 256 255 189 229 203 238 231 220 289 242 203 157 154 169 123 66 25 21 18 11 5 4 1 4 6 0 -9999 -9999 -9999 -9999 -9999 -9999 -9999 -9999 -9999 -9999 -2 2 -1 -1 -7 -9999 -9999 -9999 -9999 -9999 -9999 -9999 -9999 -9999
408 365 340 326 308 294 277 267 266 216 263 229 216 279 307 453 397 348 372 330 330 486 581 508 522 607 641 824 934 998 977 1109 1132 1241 1244 1337 1361 1383 1344 1331 1574 1323 1248 1276 1427 1385 1525 1553 1510 1417 1530 1410 1510 1465 892 1173 1124 900 862 763 790 571 436 528 568 607 634 749 694 655 525 482 396 264 180 106 75 61 58 62 70 109 72 44 52 56 59 60 68 62 118 99 112 96 100 103 113 152 178 211 261 300 289 315 322 279 299 280 251 269 237 243 207 186 205 81 112 41 38 30 23 10 8 3 3 3 -1 3 -9999 -9999 -9999 -9999 -9999 -9999 -9999 -9999 -2 -2 3 5 -1 -1 -9999 -9999 -9999 -9999 -9999 -9999 -9999 -9999 -9999
407 385 352 338 315 298 285 266 261 263 269 266 256 269 216 460 482 376 456 536 474 399 497 490 553 533 658 727 826 838 933 1004 1118 1127 1236 1221 1324 1312 1300 1307 1454 1230 1211 1184 1226 1333 1480 1708 2023 1666 1654 1639 1636 1439 1565 1400 1211 915 805 760 830 683 544 589 588 565 550 539 553 507 473 446 359 234 255 295 257 158 87 79 95 65 55 48 58 47 67 67 100 95 84 115 104 104 133 183 239 253 261 297 364 413 445 485 517 520 383 329 349 295 287 296 239 247 222 156 180 154 107 77 30 11 7 4 4 3 1 2 2 -9999 -9999 4 -9999 -9999 2 -2 -2 -2 1 2 2 -1 0 1 0 6 5 -9999 -9999 -9999 -9999
437 393 363 346 323 304 283 268 254 263 268 271 270 267 267 284 301 309 340 373 393 402 498 516 505 538 611 605 734 826 848 999 1082 1210 1262 1191 1240 1215 1209 1238 1177 1170 1155 1178 1173 1264 1357 1507 1864 1678 1733 1614 1521 1371 1599 1533 1173 927 808 771 649 725 564 504 503 507 525 499 482 496 398 377 281 288 312 417 326 132 257 84 74 107 83 48 57 46 57 85 101 118 131 126 128 156 186 269 289 345 410 480 480 568 523 675 678 724 554 494 441 336 349 332 311 306 259 247 186 143 158 76 41 14 9 7 4 4 6 5 8 5 1 4 1 2 1 5 -2 6 5 8 3 0 0 1 0 0 2 3 -9999 -9999 -9999
423 391 380 347 326 302 289 271 258 271 274 283 289 292 288 281 300 325 367 377 407 456 447 621 626 701 711 758 708 794 813 948 1045 1066 1111 1051 1075 1170 1174 1220 1277 1226 1129 1192 1248 1235 1289 1401 1469 1807 1663 1441 1727 1363 1189 1157 1027 854 824 840 614 542 508 535 486 578 485 534 424 412 346 332 294 317 283 346 424 301 461 120 134 117 305 181 62 70 140 89 108 126 145 154 189 284 321 305 306 437 545 610 656 726 844 875 929 879 664 617 583 451 421 375 359 337 322 278 250 225 174 156 49 40 24 12 10 9 10 7 5 6 16 6 5 3 3 1 3 6 10 8 2 2 3 3 3 0 0 1 0 0 -9999
415 385 376 356 329 315 304 290 277 273 282 287 295 299 231 236 288 323 336 354 444 586 603 773 778 863 766 698 690 711 754 824 891 934 967 980 1030 1022 1051 1071 1086 1140 1105 1328 1386 1410 1535 1470 1493 1596 1567 1414 1399 1223 1102 1015 917 910 878 816 727 605 510 467 473 458 419 461 365 348 359 302 337 313 304 339 386 406 221 234 270 128 254 141 136 165 131 203 114 130 154 166 240 302 348 445 459 413 562 758 854 968 1036 1211 1277 1062 810 727 668 575 488 418 388 375 324 300 279 240 201 138 103 64 30 15 18 13 10 9 9 13 10 10 7 6 7 6 4 7 3 1 3 2 3 2 0 0 1 2 3 1 -9999
398 381 367 353 337 314 321 280 287 290 286 294 299 303 273 241 288 302 345 347 496 750 779 832 692 691 717 665 660 673 704 737 778 820 883 883 931 965 952 918 893 1035 1068 1214 1142 1287 1332 1458 1462 1523 1451 1306 1179 1101 1063 1049 930 890 861 721 764 649 478 529 460 479 643 395 511 385 439 364 354 330 329 342 364 272 244 277 308 412 229 233 108 158 89 223 132 314 183 208 257 315 375 406 520 487 569 779 987 1081 1120 1353 1461 1253 917 886 715 588 512 446 414 406 363 298 291 202 173 143 100 48 30 20 23 16 11 10 13 14 11 9 11 8 8 6 4 9 5 3 3 2 3 3 3 2 2 2 3 2 -9999
426 388 387 363 354 333 325 312 326 313 302 346 466 350 283 275 310 376 388 367 547 900 837 799 803 658 667 657 662 683 694 736 751 802 822 850 875 878 867 873 853 868 931 942 1088 1053 1040 1230 1293 1514 1440 1177 1087 1000 965 951 1020 938 856 774 585 548 548 484 458 524 525 462 507 578 507 406 399 373 350 371 298 217 215 207 280 403 428 290 329 349 218 110 395 280 233 229 293 366 416 475 484 623 679 1006 1089 1319 1456 1871 1814 1694 1223 1067 797 652 521 442 399 386 348 315 253 204 200 154 109 62 36 22 21 15 17 11 10 11 17 14 8 12 8 9 15 5 3 9 6 6 6 4 4 6 4 5 5 2 -9999
455 413 392 382 357 335 329 335 329 326 342 458 403 292 389 492 347 565 700 644 769 726 769 701 675 646 638 651 658 672 688 778 746 760 795 807 834 844 815 823 837 846 873 873 998 929 1054 1084 1237 1639 1339 1050 964 961 933 926 934 889 850 756 630 760 726 633 487 522 641 507 769 751 519 504 546 411 447 364 250 249 219 218 245 372 335 446 364 520 231 229 282 306 311 466 345 452 473 568 548 698 835 1016 1281 1529 1763 2320 2480 2219 1687 1427 877 662 556 472 422 388 388 298 228 221 205 221 137 86 32 28 26 21 16 15 12 12 18 11 10 10 11 17 11 9 6 3 4 4 5 3 7 3 3 4 6 7 -9999
419 411 401 371 355 342 346 432 351 484 421 334 436 484 653 825 483 718 743 729 752 729 663 662 650 638 638 646 642 662 731 729 733 743 755 763 776 774 775 766 733 753 733 792 814 840 908 930 1032 1276 1156 979 907 894 887 893 859 866 775 781 788 824 782 705 600 595 674 741 691 804 614 671 758 662 441 314 261 232 221 254 237 271 312 376 513 555 461 333 173 417 534 507 597 613 508 571 601 750 1001 1262 1257 1508 1728 2476 2965 2613 1793 1484 982 684 574 495 467 454 442 412 254 189 193 129 92 38 35 46 45 26 22 20 16 18 17 10 15 13 15 10 10 7 6 9 6 9 8 5 9 4 5 3 7 7 -9999
430 424 383 367 344 378 373 375 564 537 487 522 602 665 937 742 701 595 573 799 711 665 659 649 638 657 656 657 650 660 807 730 721 718 732 743 742 734 725 738 705 700 700 694 729 730 750 783 864 966 994 888 860 850 865 863 864 853 895 973 1005 991 862 705 718 738 577 842 898 699 683 740 988 530 511 345 294 248 237 236 239 257 309 690 539 428 336 405 206 228 312 330 357 514 595 641 667 696 923 1188 1209 1471 1707 2232 2486 2275 1615 1494 931 720 583 502 501 463 383 374 288 251 241 141 55 63 51 92 48 69 34 22 26 26 20 15 16 13 10 11 11 10 10 10 8 8 6 6 11 5 7 6 7 6 -9999
433 403 378 374 368 387 431 386 673 530 626 622 859 894 838 742 714 687 765 638 638 649 638 644 650 653 656 638 666 663 666 726 704 699 712 718 723 713 709 705 701 691 685 681 684 685 695 718 786 838 807 812 798 799 871 871 865 873 948 1161 1135 1253 1012 845 981 815 613 823 1042 838 768 937 824 707 590 401 293 277 239 231 254 311 368 496 472 493 378 258 307 374 316 348 409 380 604 727 754 671 831 1095 1307 1412 1776 2053 1986 1771 1484 1511 832 697 573 512 521 509 426 395 276 187 150 136 134 168 191 182 109 157 57 44 23 18 20 21 17 17 18 12 18 14 11 13 10 9 12 9 11 8 8 9 10 8 -9999
426 422 390 384 496 397 465 630 615 749 911 943 828 756 741 697 695 661 676 638 638 638 649 652 643 652 654 662 662 663 673 702 690 688 698 703 707 701 702 694 691 682 681 677 674 676 679 686 721 751 783 767 740 723 968 921 846 841 1014 1335 1321 1481 1189 1032 1236 955 825 831 1012 1064 1068 856 812 632 613 591 375 281 238 240 255 288 309 440 539 458 495 445 335 463 369 335 492 651 527 683 795 950 902 1090 1238 1327 1807 2011 1780 1573 1380 1322 809 678 580 516 516 475 427 381 254 187 236 222 268 207 203 152 153 89 45 38 37 50 24 22 18 20 27 22 16 15 13 12 11 12 13 16 17 14 11 10 11 9 -9999
421 428 579 461 514 477 684 636 776 939 1020 861 762 721 798 698 849 711 662 638 660 673 638 638 638 638 638 638 664 670 656 669 686 685 693 693 699 697 696 693 690 684 678 676 672 666 669 666 673 685 698 699 687 692 923 923 765 818 948 1224 1374 1412 1331 1329 1234 1226 992 1078 1146 1359 1342 1129 892 660 624 692 447 296 252 254 262 306 370 382 405 464 389 277 346 519 564 505 502 529 620 667 756 889 990 1048 1094 1166 1484 1715 1703 1563 1176 1098 831 675 571 528 510 465 429 361 323 302 323 239 269 207 199 147 111 94 73 47 28 38 53 28 25 28 36 24 18 19 15 13 17 14 21 24 16 17 15 10 10 11 -9999
462 506 620 697 704 762 468 466 783 800 944 779 865 927 779 776 965 679 647 670 683 688 646 638 638 638 665 773 668 667 672 691 663 677 682 683 685 685 686 684 685 678 682 673 672 667 664 667 666 673 686 688 680 689 753 755 740 780 927 998 1122 1180 1164 1145 1213 1301 1368 1310 1423 1375 1150 944 852 728 604 671 407 322 342 299 340 372 486 474 426 422 362 321 368 286 296 323 410 662 505 642 690 801 889 1039 1104 1129 1342 1410 1292 1178 1041 983 837 729 647 559 517 453 394 329 292 285 258 229 231 200 151 137 122 68 111 35 21 28 75 58 30 13 26 23 21 18 17 15 19 12 20 24 16 16 13 10 12 11 -9999
704 613 804 750 577 590 780 869 887 811 849 924 991 1033 1016 809 825 687 749 703 685 643 644 638 656 681 907 1050 824 746 712 770 660 671 676 676 679 674 674 677 672 669 670 669 666 663 662 666 663 666 673 670 675 677 674 682 688 701 824 959 967 1109 1128 1269 1269 1271 1498 1537 1505 1471 1232 976 870 790 728 574 489 387 338 423 599 520 691 704 545 484 484 405 372 320 346 317 348 392 490 595 612 682 830 927 987 997 1150 1125 1061 941 802 721 709 648 613 514 477 420 384 330 270 239 232 213 189 168 148 137 134 139 88 38 63 45 39 81 62 25 28 30 27 24 17 18 18 18 20 22 17 23 17 11 11 16 -9999
651 770 835 691 546 591 661 855 889 898 983 1026 1035 1106 1136 1133 824 814 844 701 715 668 666 665 656 799 1031 1122 988 942 887 697 665 661 667 667 664 664 661 665 666 670 666 664 663 664 662 659 664 663 667 668 665 668 675 680 690 688 829 867 1075 1280 1239 1193 1274 1383 1312 1018 1046 1206 1039 849 773 768 644 656 607 437 425 441 654 682 746 854 798 560 533 473 376 331 332 452 557 466 519 576 590 649 651 806 842 845 933 915 982 750 682 680 625 564 518 485 465 410 361 316 265 222 205 200 179 154 151 145 139 127 71 48 100 97 156 82 73 32 53 41 24 21 20 20 23 22 22 26 20 22 17 15 13 17 -9999
888 885 713 573 605 862 849 894 894 903 955 993 992 1029 1163 1066 850 829 854 779 695 671 669 668 667 699 996 945 945 886 747 762 670 663 664 660 659 662 661 662 666 657 663 663 662 662 663 663 664 664 664 664 664 666 675 673 683 704 710 794 1205 1159 1160 1160 950 994 1048 851 837 1161 939 796 772 620 623 643 536 583 599 528 724 782 777 877 857 867 792 569 459 401 363 383 600 527 525 585 604 644 650 755 817 770 862 908 900 790 650 621 631 512 591 461 433 399 346 293 246 212 205 172 178 159 140 122 120 48 37 64 57 56 160 73 49 47 56 60 49 46 38 119 58 51 36 44 27 22 24 16 16 18 -9999
1017 858 743 666 623 761 924 950 940 983 972 969 992 1123 1052 999 848 877 812 831 783 740 713 672 649 775 989 795 1124 892 707 678 667 663 668 662 663 663 664 662 662 663 661 662 661 661 663 662 665 665 665 665 666 670 666 672 695 712 749 811 863 994 994 1019 1200 1013 829 676 682 772 720 631 559 571 566 551 586 649 668 722 764 830 927 886 898 903 865 660 547 484 454 435 503 733 699 587 614 575 622 619 639 655 804 839 744 723 579 534 517 577 567 535 488 394 366 282 239 201 197 170 195 162 128 99 103 79 39 80 96 112 133 93 135 88 33 64 74 43 54 38 27 40 36 43 42 36 29 35 26 20 -9999
1016 1014 910 852 864 852 974 946 936 939 950 965 1013 1134 1006 958 1033 981 929 903 914 838 820 732 703 840 828 1131 956 878 903 708 672 668 669 669 666 663 665 665 664 662 662 662 662 663 664 665 665 665 664 667 668 666 670 673 685 757 791 841 834 848 861 1068 747 802 871 741 658 563 615 597 536 559 448 401 577 646 719 779 915 1039 1101 1082 1037 970 850 881 641 508 478 517 448 610 718 623 601 583 577 579 587 603 627 738 703 711 566 575 545 713 700 578 372 251 224 420 309 182 172 149 137 135 122 121 124 56 86 88 263 184 232 78 220 144 33 74 72 65 52 33 32 30 44 38 42 48 40 42 25 22 -9999
986 994 980 986 681 893 894 954 960 971 1027 1119 1002 1015 1032 1077 1059 1273 1236 1165 956 789 760 835 922 954 984 931 1001 912 803 714 702 670 670 665 668 668 665 833 835 715 665 666 668 665 671 669 673 669 668 668 668 666 671 679 686 798 822 863 855 854 867 1011 737 681 784 720 693 594 520 532 519 503 424 498 548 633 787 836 1093 1235 1291 1211 1194 1053 858 857 663 576 547 617 597 604 749 736 626 633 598 582 584 583 634 765 712 879 781 645 654 601 442 331 274 262 186 156 152 145 140 128 118 121 125 128 74 109 99 110 180 118 119 78 64 56 79 79 101 51 58 34 41 42 44 47 43 79 51 41 22 45 -9999
1023 981 967 992 696 994 979 1037 1038 1169 1106 1151 1131 1105 1079 1104 1188 1246 1340 1283 1136 894 845 957 1112 1052 1049 1135 995 818 811 732 705 676 673 671 670 672 676 724 748 1010 717 770 807 781 676 679 671 670 673 670 669 672 702 740 765 939 873 985 999 1010 908 747 666 659 720 626 567 555 536 507 499 496 443 561 543 591 724 855 1165 1509 1353 1343 1313 1039 869 816 800 693 703 686 697 711 929 1071 802 697 635 593 599 592 596 755 743 828 902 801 698 518 539 281 256 276 211 353 245 161 164 136 110 119 129 129 104 91 185 148 241 231 83 75 55 58 60 75 51 51 51 46 51 59 58 48 40 46 49 35 34 38 -9999
1006 994 900 946 871 952 979 1035 1038 1197 1225 1177 1194 1167 1154 1112 1226 1305 1368 1381 1320 1160 1280 1165 1410 1269 1258 1288 1018 863 887 821 694 690 690 677 673 678 718 773 800 937 934 911 1024 817 795 690 680 676 675 676 680 692 755 855 981 1031 1062 1251 1369 906 847 867 779 649 681 581 560 528 480 499 509 536 546 548 585 562 670 767 1095 1422 1348 1445 1234 1011 885 865 789 797 764 763 767 780 867 1028 871 827 691 615 540 565 689 767 767 693 625 492 395 341 328 288 265 290 263 372 264 221 285 178 205 152 148 132 108 125 138 179 149 92 104 96 100 72 71 81 70 51 66 75 52 72 73 48 57 47 42 56 65 59 -9999
1167 1104 937 914 939 877 901 960 1180 1179 1216 1467 1368 1280 1347 1226 1219 1374 1398 1397 1377 1458 1341 1332 1277 1213 1302 1357 1121 951 884 905 787 720 718 709 679 717 767 816 880 934 950 925 794 793 797 723 732 710 676 678 695 734 798 926 974 1106 1088 1480 1323 947 886 878 697 664 709 695 551 537 536 583 664 668 591 653 638 632 611 724 1018 1262 1111 1491 1294 1037 878 790 831 871 962 942 1033 968 1136 1140 1145 1294 1003 717 600 527 550 690 780 604 545 426 411 354 304 331 331 295 296 294 298 397 342 340 376 460 147 233 160 165 197 215 106 146 125 133 94 89 95 127 120 72 66 88 177 101 73 76 71 57 130 97 68 46 -9999
1115 1126 1033 917 880 948 923 1059 1181 1337 1338 1556 1585 1586 1517 1472 1193 1181 1246 1255 1307 1346 1332 1334 1182 1201 1208 1083 1108 963 1068 987 859 742 708 735 742 729 783 844 914 998 985 914 803 796 770 784 772 737 718 727 762 838 936 1138 1199 1120 1053 1072 872 748 707 690 653 759 956 678 588 551 557 662 691 763 716 714 803 751 681 793 1165 1244 1178 903 1017 1052 816 703 680 797 864 969 950 932 887 944 952 1047 1282 1167 715 682 498 456 662 708 776 608 427 514 519 551 539 550 565 379 318 321 209 246 491 391 173 197 213 153 263 221 142 130 143 138 97 107 130 177 207 92 82 99 131 130 104 84 84 74 166 180 137 52 -9999
1193 1088 1031 924 977 966 1049 1120 1365 1460 1619 1690 1730 1783 1702 1560 1483 1315 1337 1399 1397 1411 1387 1337 1198 1154 1111 1036 1007 1080 1222 1034 900 756 757 790 882 863 954 986 988 1122 1053 971 843 832 789 803 789 740 751 756 790 850 974 1042 1127 1220 1034 805 764 737 715 677 663 679 607 606 603 593 593 753 892 1040 921 838 879 893 879 759 983 986 993 851 735 1031 754 689 587 562 692 828 913 843 823 830 815 884 949 821 847 653 465 500 408 450 470 614 819 834 759 640 630 580 611 527 592 472 309 264 270 318 271 272 211 357 294 286 287 295 215 246 142 146 168 426 429 154 114 114 117 184 111 86 94 78 207 219 148 65 -9999
1024 1097 1134 1001 1025 1131 1142 1202 1310 1622 1737 1578 1621 1647 1745 1650 1491 1467 1546 1554 1633 1432 1434 1460 1266 1201 1103 1064 1054 1064 1237 1224 1031 806 804 851 943 1044 1132 1188 1284 1242 1195 1044 961 898 862 839 808 798 776 847 889 1046 1134 1355 1419 1284 1069 842 824 755 720 673 677 647 608 606 605 596 602 809 1057 1166 1350 1105 1066 981 886 783 793 1090 849 714 610 711 690 626 547 557 598 702 832 817 820 862 880 820 883 768 661 683 497 498 449 421 339 443 433 441 549 676 676 605 726 648 696 673 345 399 340 290 396 480 316 312 370 504 451 361 311 346 257 331 335 561 384 261 272 254 250 269 246 130 113 92 202 232 159 66 -9999
983 1064 1185 1123 1044 1145 1215 1401 1399 1553 1774 1507 1474 1504 1698 1770 1609 1632 1563 1835 1799 1543 1545 1400 1312 1228 1157 1138 1139 1109 1241 1321 1102 843 844 862 990 1146 1336 1438 1622 1424 1355 1269 998 945 882 924 910 867 885 946 1040 1152 1408 1372 1371 1217 1171 1046 891 822 734 698 687 678 657 636 622 639 646 889 1294 1423 1381 1444 1181 990 946 796 750 816 650 638 588 553 641 624 547 583 573 567 764 875 825 669 587 652 715 769 777 753 658 697 457 456 410 315 357 312 310 396 342 332 522 761 638 680 472 482 394 382 339 372 394 422 361 656 770 574 840 875 771 796 782 770 710 694 611 567 566 486 290 209 155 207 199 204 159 218 -9999
-9999 1134 1113 1250 1217 1286 1267 1359 1460 1400 1381 1420 1527 1541 1657 1704 1552 1596 1604 1696 1736 1722 1519 1406 1343 1282 1200 1204 1158 1204 1195 1173 1046 950 936 970 1178 1281 1579 1619 1835 2035 1581 1347 1125 1083 943 995 1057 1052 1034 1112 1156 1387 1662 1739 1776 1473 1402 1256 1107 925 761 812 689 632 652 671 637 653 678 858 1344 1592 1438 1475 1273 1136 1070 783 649 596 541 501 509 515 493 475 487 467 487 600 699 733 816 687 551 577 579 628 670 727 690 642 432 371 342 315 353 385 308 282 311 263 291 313 410 427 498 569 729 722 523 595 573 567 539 510 763 909 1083 849 794 665 622 583 531 557 594 889 840 893 398 348 216 230 169 91 71 33 -9999
-9999 932 834 846 1023 1262 1275 1276 1216 1437 1623 1703 1635 1804 1751 1490 1436 1530 1646 1815 1962 1788 1520 1473 1362 1390 1289 1246 1223 1259 1220 1237 1099 1004 954 1032 1159 1494 1968 1774 2167 2240 1620 1320 1155 1098 984 1199 1355 1186 1309 1261 1515 1517 1634 1833 1858 1886 1886 1783 1418 1214 835 897 758 650 630 693 670 657 670 742 937 1067 1303 1364 1340 1251 1190 834 687 560 483 478 473 477 475 482 465 462 495 647 702 729 687 684 552 533 510 504 542 615 705 651 611 527 493 374 340 584 415 362 320 250 352 399 438 422 410 444 594 711 824 897 697 627 762 839 805 1215 1055 762 791 550 454 418 349 342 367 643 625 824 1096 742 403 217 185 91 40 65 -9999
-9999 729 677 801 1000 1078 1212 1293 1313 1329 1403 1417 1614 1671 1445 1424 1468 1472 1620 1752 1775 1743 1770 1574 1540 1600 1530 1420 1439 1415 1309 1343 1488 1176 1040 1162 1325 1512 1844 1993 2230 2162 1658 1463 1220 1141 1045 1311 1520 1359 1253 1432 1530 1476 1575 1698 1681 2000 2033 1656 1508 1260 820 763 750 696 646 652 669 666 682 689 740 783 892 1147 1162 1447 1381 1186 820 623 485 481 481 467 459 458 480 516 647 665 745 720 692 643 624 508 436 457 456 506 487 571 536 526 521 542 520 461 505 441 450 251 289 329 404 540 587 793 897 836 905 1062 1091 1126 978 1007 1140 1222 913 913 665 518 500 376 376 311 338 502 532 573 810 865 364 222 209 87 60 74 -9999
-9999 550 649 703 937 1116 1165 1280 1188 1254 1371 1290 1371 1367 1431 1400 1494 1539 1658 1698 1902 2125 2081 1838 1669 1812 1712 1604 1664 1540 1480 1617 1739 1417 1178 1338 1386 1684 1944 2009 2155 2131 1873 1563 1302 1232 1125 1254 1456 1593 1467 1607 1497 1482 1497 1604 1619 1895 1942 1449 1231 1058 930 721 698 690 700 688 685 689 714 735 755 812 893 979 1096 1300 1522 1154 864 626 534 499 488 476 472 457 628 758 1018 892 937 934 785 720 648 519 466 419 406 426 469 487 456 451 466 486 496 548 554 503 310 236 324 371 437 499 686 952 845 695 1176 1051 1084 1209 1237 1199 1226 1086 870 820 673 549 481 444 361 322 280 271 352 455 517 684 481 254 81 71 41 123 -9999
-9999 548 617 647 907 1159 1183 1132 1203 1275 1198 1337 1313 1205 1326 1347 1421 1507 1589 1815 1919 2217 2158 1953 1791 1920 1877 1857 1880 1852 1665 1538 1506 1475 1259 1371 1462 1533 1809 1869 1967 2018 1821 1607 1458 1384 1211 1455 1645 1838 1638 1626 1385 1406 1333 1496 1610 1390 1345 1092 886 821 742 749 721 691 691 696 683 704 734 770 779 838 903 1108 1250 1423 1368 1122 872 623 607 580 539 484 472 475 769 1096 1301 1216 1180 1260 1132 940 828 683 503 459 459 383 403 392 443 420 429 454 464 476 493 516 407 455 232 357 503 749 693 760 593 881 778 866 721 785 950 1126 836 787 1002 809 763 543 481 437 417 346 394 393 455 336 237 340 498 268 127 97 55 93 -9999
-9999 464 496 606 885 1131 1084 1132 1178 1161 1293 1289 1166 1252 1259 1302 1556 1563 1704 1696 2014 2249 2216 2020 2150 1902 2011 1866 2017 1970 1762 1531 1447 1454 1413 1363 1420 1487 1580 1613 1743 1876 1980 1690 1551 1399 1355 1499 1691 1714 1515 1499 1339 1204 1308 1290 1142 1248 1231 932 764 752 724 700 694 691 690 690 704 735 781 841 849 944 1205 1271 1523 1419 1412 1116 912 707 648 625 556 501 465 505 747 983 1334 1355 1430 1437 1214 1076 878 649 525 464 426 387 365 350 408 438 447 438 456 444 456 438 436 472 346 347 239 253 369 485 504 639 559 498 703 800 995 951 803 638 852 683 660 592 487 452 347 367 524 460 561 472 437 412 184 203 75 56 53 61 -9999
-9999 401 551 824 900 1074 1004 933 1068 1192 1241 1160 1092 1242 1339 1322 1395 1415 1531 1683 1970 2138 2076 1955 1915 1896 1920 1796 2001 1949 1737 1568 1460 1451 1423 1425 1441 1493 1518 1547 1666 1781 1736 1534 1520 1407 1486 1579 1720 1529 1573 1462 1250 1162 1121 1050 1051 1017 933 825 769 767 728 703 697 700 713 720 736 767 820 900 935 1056 1189 1458 1632 1540 1437 1090 903 784 690 652 575 515 472 490 606 790 1156 1579 1453 1446 1553 1381 1016 738 523 431 447 373 350 342 436 451 473 467 524 505 367 385 367 382 442 402 230 244 195 252 317 377 468 542 644 685 713 679 613 513 656 802 703 599 597 547 543 570 621 510 567 894 861 480 288 191 82 73 85 115 -9999
-9999 456 660 769 985 1012 833 831 834 881 949 1028 1126 1271 1411 1506 1394 1445 1547 1702 1894 1948 1859 1864 1791 1850 1584 1678 1576 1914 1835 1601 1455 1423 1442 1458 1474 1515 1536 1588 1731 1889 1576 1502 1479 1558 1671 1898 1823 1559 1509 1448 1290 1090 1005 1008 989 956 912 859 782 760 718 697 711 707 758 773 811 905 872 946 1009 1097 1301 1616 1752 1608 1706 1095 888 790 743 702 585 527 477 461 660 700 896 1434 1093 1205 1008 980 1045 908 632 492 466 357 293 383 454 451 462 434 444 429 378 350 343 367 385 404 321 259 156 213 240 346 416 530 543 670 660 592 557 473 633 802 552 534 577 586 567 622 740 649 595 581 417 316 219 183 89 60 66 127 -9999
-9999 475 682 795 836 789 791 836 1118 1156 1220 1241 1271 1151 1276 1375 1417 1665 1704 1509 1767 1653 1587 1607 1650 1764 1539 1349 1352 1671 1822 1633 1492 1458 1452 1470 1553 1516 1548 1553 1758 2002 1711 1597 1596 1654 1797 2007 1877 1669 1590 1408 1264 1166 1065 990 977 961 899 879 810 766 730 728 737 776 826 891 885 973 1034 1021 969 1195 1388 1839 1820 1697 1617 1091 916 814 731 694 568 515 473 450 622 713 967 813 1075 1244 1154 797 875 700 556 539 505 377 315 316 347 342 308 378 384 397 422 395 357 342 386 387 402 386 222 172 221 348 417 411 521 700 701 515 589 372 551 594 444 517 504 451 473 522 732 586 509 478 319 225 117 142 195 72 72 88 -9999
-9999 486 644 751 660 716 830 1064 1053 1056 1100 1199 1087 1180 1291 1483 1547 1638 1554 1233 1522 1475 1543 1593 1730 1650 1343 1265 1413 1402 1705 1599 1512 1436 1496 1482 1479 1515 1535 1544 1958 1701 1624 1659 1728 1923 2147 2167 2030 1839 1626 1382 1235 1146 1029 1020 956 930 895 849 805 798 724 738 745 800 841 986 945 1104 1086 1078 1011 1166 1304 1665 2072 1627 1352 992 795 776 684 691 527 487 454 455 555 656 828 1009 1127 1003 974 748 646 596 508 448 408 313 300 243 290 244 264 272 260 331 375 347 335 372 429 456 399 315 179 198 254 320 454 571 669 727 664 718 588 499 389 319 330 295 334 411 249 454 527 486 366 294 249 228 200 215 184 75 72 79 -9999
-9999 491 518 520 543 739 846 1007 993 1007 1131 1137 1052 1188 1284 1432 1400 1419 1190 1217 1176 1492 1628 1675 1589 1424 1321 1281 1123 1289 1463 1445 1536 1454 1347 1335 1369 1428 1460 1487 1563 1698 1628 1672 1727 2023 2400 2275 2047 1867 1709 1419 1217 1151 1065 1028 955 907 884 862 827 791 786 774 790 849 897 1016 1125 1283 1348 1284 1201 1106 1300 1693 2068 1555 1330 1028 866 734 688 672 498 475 450 473 597 604 674 898 781 742 696 787 551 559 500 406 393 377 300 286 257 252 224 252 200 265 303 309 330 364 323 387 300 229 223 216 253 269 340 423 604 614 683 682 652 605 424 206 176 217 232 343 170 366 251 323 214 228 391 350 231 186 205 157 79 82 -9999
-9999 381 480 742 871 930 918 824 797 818 882 993 1079 1148 1265 1349 1303 1358 1109 1104 1035 1342 1515 1529 1640 1523 1124 1089 984 1329 1434 1232 1491 1223 1355 1433 1377 1543 1540 1535 1589 1633 1621 1702 1802 2023 2082 2357 2231 1981 1810 1494 1300 1136 1047 1005 962 932 902 867 852 840 868 887 845 915 947 1090 1385 1491 1457 1416 1167 1021 1209 1728 1301 1115 953 870 785 663 620 578 507 464 442 449 516 499 594 799 700 696 631 643 492 520 468 381 383 335 315 284 235 249 237 195 170 206 254 268 271 341 343 277 311 213 172 187 221 198 200 438 543 367 565 647 610 589 511 390 186 215 201 187 152 131 135 141 127 275 415 356 396 292 199 134 255 93 -9999
-9999 427 688 789 856 874 704 691 700 747 844 961 1093 1157 1212 1164 1275 1105 991 843 1242 1635 1602 1374 1551 1248 1140 945 1030 1349 1349 1142 1320 1170 1233 1515 1507 1508 1561 1546 1578 1660 1669 1691 1758 1797 2012 2090 2178 2176 2057 1528 1247 1128 1046 1022 971 951 953 968 929 926 871 909 922 968 1033 1256 1571 1555 1397 1091 1000 901 1078 1324 1522 1511 823 714 651 572 515 515 501 459 427 426 447 524 552 612 602 619 576 501 426 433 390 344 323 310 304 263 173 188 201 192 172 184 216 225 257 342 356 302 225 244 160 200 217 311 249 353 465 300 403 453 339 303 484 339 194 106 108 189 89 78 74 87 173 210 394 600 579 399 298 317 223 112 -9999
-9999 517 780 808 764 725 678 474 847 968 830 841 1080 1109 1129 1114 1192 1093 829 1062 1422 1466 1428 1293 1419 1073 988 802 1112 1303 1222 984 1256 1239 1026 1403 1602 1589 1703 1618 1687 1600 1660 1728 1791 1786 1927 2033 2052 2184 1870 1559 1305 1175 1084 1037 1042 1061 1103 1131 1105 1058 992 1009 975 1004 1087 1202 1377 1355 1215 1037 954 858 850 945 1030 1017 916 693 575 539 510 489 481 453 425 397 405 382 416 470 439 515 482 465 374 363 323 320 245 206 191 182 204 209 208 186 179 191 211 204 220 330 284 169 136 78 152 238 187 243 238 199 336 367 335 313 271 278 323 245 213 136 174 183 72 59 64 72 159 179 316 482 577 506 497 366 241 180 -9999
-9999 753 774 753 502 458 412 512 832 784 754 895 885 1036 1086 940 984 618 761 1177 1228 1336 1278 1392 1243 958 751 842 1138 961 876 880 922 977 980 1325 1597 1808 1801 1767 1762 1737 1722 1697 1701 1734 1817 2079 2184 2206 1733 1470 1315 1187 1091 1029 1097 1199 1247 1235 1309 1158 1063 1094 989 1035 1033 1119 1197 1158 1098 926 882 814 690 764 771 761 722 632 542 507 487 480 476 436 445 398 379 357 353 363 366 371 364 383 373 360 322 304 230 204 172 171 169 183 181 181 172 165 174 168 208 231 280 143 66 31 143 153 209 198 170 104 204 236 169 200 153 78 90 51 31 32 65 54 181 76 105 147 238 213 269 404 545 589 581 312 284 291 -9999
-9999 690 734 682 416 328 424 576 709 698 657 719 928 968 795 985 689 693 1097 1191 1285 1123 1206 1391 1059 909 710 901 1004 838 696 947 751 973 1132 1377 1416 1745 1894 1784 2096 1874 1808 1636 1668 1767 1938 2035 2240 2096 1823 1614 1391 1232 1136 1109 1236 1375 1588 1579 1643 1388 1234 1063 960 955 1083 1024 1111 1064 956 845 815 743 700 691 686 674 648 589 549 499 471 461 453 440 419 391 375 360 337 338 331 316 320 336 305 281 254 234 219 184 170 151 170 166 139 147 133 142 127 125 132 187 215 151 119 24 27 31 68 57 92 95 94 96 157 165 104 50 29 23 27 25 24 28 32 124 354 346 358 224 161 234 429 414 486 366 505 450 -9999
-9999 576 587 366 453 292 507 519 783 628 822 898 958 777 762 749 566 915 987 1180 995 1117 1072 1200 971 895 547 718 994 592 739 877 989 1150 1366 1522 1403 1612 1844 1750 1683 1682 1717 1554 1670 1707 1912 2155 2168 2115 1996 1658 1434 1276 1172 1192 1358 1559 1897 2209 2131 1661 1292 1112 1021 909 891 927 945 940 841 765 759 699 611 575 579 552 543 531 487 472 456 453 457 426 402 382 372 355 343 305 319 331 301 310 283 266 237 214 201 170 152 165 151 154 130 127 131 129 115 108 75 110 135 107 81 27 23 23 72 37 37 20 56 27 50 101 89 37 19 15 19 25 25 29 36 27 96 171 317 316 225 117 255 349 252 481 515 546 -9999
-9999 498 538 320 220 296 380 556 499 643 745 633 794 874 689 565 454 999 830 1064 1063 1215 1067 1145 906 869 572 628 831 499 746 1077 915 966 1168 1344 1569 1609 1565 1566 1448 1668 1564 1507 1447 1704 2049 2564 2451 2565 2026 1668 1412 1313 1191 1202 1371 1630 2071 2630 2255 1877 1438 1202 1031 963 863 840 865 800 819 766 722 707 620 546 531 517 493 482 461 443 448 444 444 422 387 376 364 357 345 339 321 263 297 292 279 251 243 229 208 186 164 147 126 127 119 122 121 116 104 109 53 87 85 36 20 31 26 25 56 30 20 42 21 20 25 37 35 98 37 19 15 21 17 27 31 27 31 65 122 380 81 140 169 132 536 433 480 543 -9999
-9999 432 466 296 221 249 357 503 604 619 604 637 681 766 646 541 750 773 780 655 1111 927 1115 1028 844 1061 697 514 737 601 566 771 814 1063 1217 1336 1446 1461 1490 1545 1382 1659 1629 1528 1512 1580 1917 2230 2211 1987 1770 1537 1373 1257 1228 1230 1346 1528 1840 2021 1890 1726 1436 1241 1086 994 899 752 799 791 709 729 649 626 587 528 488 477 466 454 441 424 444 420 411 416 397 369 366 352 339 333 320 297 275 244 221 186 242 230 196 186 182 168 156 149 133 105 95 97 81 91 58 98 84 41 20 20 20 41 57 23 23 22 27 18 17 24 23 26 65 14 16 19 19 23 31 27 29 32 51 180 66 150 107 153 269 296 365 307 -9999
-9999 422 384 423 434 259 222 560 541 512 522 407 691 426 664 491 833 574 697 915 746 770 1031 888 727 889 838 723 448 677 828 1198 989 1189 1409 1539 1321 1398 1414 1548 1353 1415 1462 1275 1371 1499 1706 1957 1977 1837 1675 1497 1336 1246 1236 1236 1322 1506 1703 1626 1672 1530 1391 1152 1050 1040 910 802 725 671 677 660 617 547 560 525 475 441 445 431 415 407 399 395 386 389 379 364 358 364 355 336 335 331 321 300 290 267 255 169 182 176 166 193 177 167 144 101 115 111 101 44 59 74 91 73 50 54 21 29 75 20 24 23 16 19 19 11 13 18 19 51 22 23 22 20 25 34 28 30 42 107 60 169 90 143 277 346 324 305 -9999
-9999 347 378 391 403 389 204 477 483 461 374 497 450 322 308 529 705 680 512 697 608 870 708 906 747 671 942 752 456 479 906 1305 1136 1315 1190 1412 1212 1358 1389 1279 1075 1252 1270 1230 1256 1208 1415 1534 1549 1541 1443 1401 1299 1250 1239 1242 1266 1358 1499 1543 1602 1499 1314 1230 1209 1105 919 884 851 669 610 641 621 574 553 514 468 476 438 411 404 394 393 378 368 387 357 346 342 357 352 369 347 338 341 314 290 270 270 269 249 222 214 188 143 73 153 141 128 62 102 116 50 53 38 32 69 28 46 22 62 19 14 16 13 11 19 21 16 84 89 152 68 33 21 31 27 37 42 39 35 52 64 102 82 107 96 154 212 291 -9999
-9999 338 330 356 348 144 408 436 432 439 334 405 563 391 261 421 378 459 339 510 634 548 511 801 875 706 900 500 333 685 720 984 875 1138 1366 988 1291 1304 1437 1274 983 1072 1320 1248 1100 1093 1138 1241 1307 1337 1338 1343 1303 1318 1307 1345 1278 1292 1392 1351 1296 1240 1368 1387 1325 1003 959 875 714 657 605 613 627 569 549 509 491 478 448 406 410 384 388 377 357 346 340 323 327 336 375 365 353 346 327 320 267 297 273 286 256 278 239 226 193 201 138 158 142 120 131 111 122 43 42 38 38 41 92 150 22 23 21 6 9 12 17 15 14 131 217 79 199 208 149 27 25 27 34 77 142 42 77 75 123 81 72 166 281 275 -9999
-9999 118 290 175 152 318 342 216 361 363 145 309 374 267 238 397 369 457 322 531 520 748 455 822 740 771 807 475 469 646 731 694 887 1081 984 804 979 1330 1403 1217 816 1130 1075 1212 1129 897 1025 1056 1139 1179 1230 1418 1447 1519 1433 1509 1335 1297 1367 1104 1148 1022 1044 1206 1122 1151 1120 1197 945 852 700 669 576 533 506 497 488 489 438 447 426 388 384 351 328 302 295 316 329 339 376 381 366 355 315 306 302 316 288 259 274 276 261 233 215 214 201 74 46 36 48 31 38 135 106 35 50 191 123 66 45 12 15 7 8 16 8 19 13 60 210 24 142 178 201 80 90 29 30 34 140 100 61 58 51 64 118 126 170 192 -9999
-9999 12 241 64 177 275 284 292 100 165 180 218 285 239 291 550 270 348 567 630 483 480 483 577 453 608 780 504 496 840 841 664 775 786 766 855 1020 1096 1311 1050 822 1202 951 913 916 839 845 932 1044 1134 1251 1475 1660 1615 1610 1627 1531 1333 1414 1103 919 855 847 875 939 1068 1394 1085 907 762 654 749 713 691 638 574 471 451 411 413 419 418 333 373 342 338 284 345 385 401 408 384 389 361 358 373 391 401 325 270 313 282 215 175 128 134 136 182 174 122 127 134 28 68 157 92 62 178 121 85 13 9 8 9 9 14 9 17 19 17 32 44 17 18 100 207 153 53 52 32 38 84 89 91 70 70 90 84 253 284 -9999
-9999 53 110 142 220 215 71 116 40 219 134 167 252 176 426 297 291 248 318 350 497 491 277 382 312 341 223 304 439 911 814 660 641 684 703 1219 1137 1278 1036 905 686 1009 769 670 685 639 770 907 909 1040 1292 1392 1453 1487 1650 1529 1473 1254 1170 1004 939 966 790 763 850 909 1111 1091 917 750 671 651 584 699 675 558 512 496 426 430 357 321 318 321 350 323 258 307 294 356 410 437 410 415 360 402 531 646 415 406 335 256 322 273 201 228 159 97 184 180 174 148 52 44 22 29 27 113 73 20 27 9 15 8 10 16 8 7 12 12 74 27 13 16 102 88 167 139 91 35 39 108 152 52 45 74 102 187 119 172 -9999
-9999 15 26 150 165 169 61 16 48 187 84 151 232 302 332 277 258 321 240 270 305 280 445 396 103 182 272 470 764 849 612 447 465 635 946 866 920 805 819 622 633 1066 799 692 542 519 698 896 987 1084 1161 1289 1231 1412 1502 1420 1342 1200 1042 886 880 976 871 711 763 874 1018 1204 1074 908 780 725 602 490 585 574 463 478 492 522 430 388 389 340 279 278 237 314 341 361 348 401 407 423 384 452 523 590 601 408 427 388 432 323 213 171 84 122 105 49 47 42 41 35 49 44 40 29 50 22 41 16 25 10 8 10 13 17 38 17 21 9 18 49 102 190 183 194 202 210 195 182 95 75 83 57 125 154 220 178 -9999
-9999 82 8 145 143 139 17 111 152 119 171 181 137 212 209 244 279 157 286 246 236 195 327 357 132 265 331 392 585 498 395 556 608 741 682 816 780 575 564 512 616 751 620 619 553 603 817 840 781 1000 1086 1077 967 1400 1487 1225 1193 1201 1064 1017 995 785 779 688 799 934 1045 1051 1064 1059 739 718 607 482 488 554 557 458 420 525 468 405 382 350 402 377 218 267 308 278 341 460 378 390 456 577 773 923 575 600 492 372 576 293 174 203 177 166 174 116 133 60 65 49 62 26 39 16 21 37 51 23 17 23 70 28 9 10 13 10 16 10 15 7 16 22 61 152 246 206 183 199 91 36 44 39 128 80 88 73 -9999
-9999 65 74 93 123 101 70 69 84 66 136 123 65 156 165 238 261 199 203 226 233 219 224 253 193 243 185 425 512 544 595 619 624 429 659 794 577 500 465 468 716 892 593 421 371 614 674 635 660 857 961 882 1021 1237 1434 1318 1058 1114 1177 884 917 858 659 722 738 837 891 964 952 953 782 734 642 446 487 480 434 397 314 490 422 417 296 330 424 359 257 232 283 345 435 388 383 395 428 485 794 637 821 807 595 536 311 250 298 404 308 267 135 140 101 111 104 62 26 22 19 18 32 18 14 14 20 19 28 23 9 11 6 8 7 19 11 7 10 28 85 71 80 170 113 158 124 52 67 36 53 69 118 93 -9999
-9999 18 50 33 45 41 20 70 35 65 95 140 160 124 152 168 160 107 167 174 168 229 252 203 202 236 185 293 274 653 550 560 485 465 448 597 606 522 416 416 616 670 487 432 404 350 447 493 539 576 684 810 1398 1150 1143 1338 1048 1045 1152 1081 841 711 778 613 736 729 777 947 962 872 841 819 766 493 497 357 350 451 311 252 405 367 355 306 419 397 258 183 223 292 285 327 306 363 353 507 504 650 872 782 643 475 456 482 599 514 421 321 103 194 183 190 190 116 99 88 43 125 149 90 24 26 40 14 12 17 8 12 10 16 12 5 14 8 13 4 27 20 52 90 141 39 77 45 36 34 90 170 226 227 -9999
-9999 4 48 48 29 21 32 22 45 22 74 96 42 116 103 122 109 74 91 140 119 128 193 47 250 214 305 326 210 373 386 451 347 426 406 600 612 511 400 350 635 598 394 314 315 439 733 939 975 972 961 1113 1115 1013 975 1325 1119 912 1034 1106 1114 945 757 688 661 614 817 877 828 865 901 843 859 731 689 454 493 585 423 349 194 307 342 224 395 370 302 274 264 416 431 464 452 501 513 695 728 788 870 972 519 601 574 737 726 514 613 339 249 414 477 384 225 301 327 307 252 293 354 123 24 29 19 19 13 12 13 10 17 18 15 8 12 4 8 5 11 3 5 12 17 28 78 56 54 49 34 80 248 213 -9999
-9999 -9999 -9999 -9999 -9999 -9999 5 5 6 10 8 24 38 6 29 13 56 59 29 72 87 100 115 104 161 147 189 228 91 299 247 347 249 321 405 421 454 390 298 277 543 218 194 264 385 595 918 911 986 999 897 1028 1047 953 949 1374 1091 941 1040 888 980 1091 753 626 589 577 654 804 705 813 810 800 750 804 814 651 705 693 503 358 302 199 192 283 208 357 320 153 232 361 389 565 525 530 517 501 657 790 947 868 724 899 677 763 591 525 473 503 435 370 332 327 257 256 157 187 192 174 48 25 26 22 22 22 14 26 14 18 13 9 15 8 9 5 10 12 8 6 7 10 16 17 38 81 31 52 41 37 86 210 -9999
-9999 -9999 -9999 -9999 -9999 -9999 -9999 -9999 -9999 -9999 -9999 -9999 0 4 4 2 8 3 21 19 15 27 42 69 82 71 55 37 160 200 275 274 380 149 377 338 350 415 249 451 236 148 296 399 508 609 851 698 728 814 710 873 1017 816 879 1199 1227 875 837 785 919 1137 923 674 589 560 683 864 705 672 678 835 739 825 790 690 595 605 550 395 466 294 305 211 171 218 210 174 278 275 334 519 384 363 414 430 446 547 852 841 795 797 591 544 533 481 554 464 483 393 376 337 239 138 127 92 71 39 30 38 28 24 26 23 15 29 35 39 13 6 7 11 5 13 11 5 13 7 4 12 14 16 19 34 20 38 219 180 171 123 -9999
-9999 -9999 -9999 -9999 -9999 -9999 -9999 -9999 -9999 -9999 -9999 -9999 -9999 -9999 -9999 -9999 -9999 -9999 -9999 -9999 -9999 -9999 -9999 -9999 -9999 13 38 56 148 186 58 133 94 383 197 296 281 187 197 285 133 335 405 530 666 597 646 561 723 579 659 989 796 921 998 808 859 793 626 651 684 893 1077 972 622 550 799 843 827 825 696 762 798 604 736 564 672 520 624 464 502 344 333 265 219 191 162 156 237 379 464 391 372 368 380 322 338 460 728 678 730 687 633 497 445 451 502 453 445 432 365 353 233 288 138 143 96 127 68 49 72 82 46 37 30 24 34 14 10 5 6 8 16 5 5 7 13 10 6 6 10 20 18 18 24 30 34 111 293 61 -9999
-9999 -9999 -9999 -9999 -9999 -9999 -9999 -9999 -9999 -9999 -9999 -9999 -9999 -9999 -9999 -9999 -9999 -9999 -9999 -9999 -9999 -9999 -9999 -9999 -9999 -9999 -9999 -9999 36 82 106 127 155 302 138 296 187 313 294 156 297 412 394 387 433 525 438 489 669 653 862 721 708 905 901 712 654 569 430 529 586 846 974 765 665 524 770 778 777 765 715 684 635 777 494 514 591 426 489 538 507 482 457 374 307 281 141 156 278 423 402 328 423 349 291 313 423 473 593 754 574 578 625 556 478 488 404 464 444 481 469 396 367 337 348 239 286 211 96 203 248 387 153 139 215 203 106 34 6 5 4 5 15 13 2 7 4 5 2 10 15 12 14 17 17 11 20 35 25 32 -9999
-9999 -9999 -9999 -9999 -9999 -9999 -9999 -9999 -9999 -9999 -9999 -9999 -9999 -9999 -9999 -9999 -9999 -9999 -9999 -9999 -9999 -9999 -9999 -9999 -9999 -9999 -9999 -9999 25 46 47 56 87 162 113 282 142 230 294 161 331 275 181 357 439 488 324 585 484 553 652 416 697 856 592 609 457 549 534 306 549 800 700 812 522 504 685 749 735 767 685 690 601 482 508 386 521 428 479 403 466 439 419 494 521 394 140 224 371 436 351 303 350 331 301 278 271 438 510 708 494 457 511 530 501 398 414 452 433 464 450 451 389 365 334 285 203 254 101 255 286 258 417 483 485 409 230 103 11 11 11 1 11 3 3 4 2 8 5 6 14 10 19 16 9 3 17 32 20 112 -9999
-9999 -9999 -9999 -9999 -9999 -9999 -9999 -9999 -9999 -9999 -9999 -9999 -9999 -9999 -9999 -9999 -9999 -9999 -9999 -9999 -9999 -9999 -9999 -9999 -9999 -9999 -9999 -9999 -9999 -9999 0 12 40 86 83 117 153 34 52 319 298 256 220 318 375 442 262 566 373 479 610 344 622 772 487 480 480 331 408 262 503 687 611 689 413 543 685 773 603 747 687 628 706 558 531 516 446 366 448 350 475 474 440 415 506 470 193 129 323 298 372 262 258 370 308 354 329 430 513 456 410 426 461 465 462 338 362 438 460 422 402 399 420 412 406 391 212 218 245 273 404 492 463 535 518 404 117 48 19 9 21 6 3 13 3 0 3 2 7 3 13 5 5 12 13 4 17 41 56 55 -9999
-9999 -9999 -9999 -9999 -9999 -9999 -9999 -9999 -9999 -9999 -9999 -9999 -9999 -9999 -9999 -9999 -9999 -9999 -9999 -9999 -9999 -9999 -9999 -9999 -9999 -9999 -9999 -9999 -9999 -9999 -9999 -9999 -9999 -9999 28 34 31 15 110 207 172 256 260 214 351 231 453 337 230 401 509 273 486 605 315 425 495 350 297 292 746 893 580 817 518 475 724 741 638 670 686 662 607 458 508 680 677 443 326 361 477 398 385 321 394 438 322 112 196 186 448 247 244 334 294 211 279 368 485 480 302 334 357 274 379 239 429 474 496 448 387 329 437 433 453 418 299 304 388 441 437 513 578 549 482 431 296 213 30 8 3 5 16 14 6 9 4 9 4 6 2 10 6 12 7 0 8 26 54 57 -9999
-9999 -9999 -9999 -9999 -9999 -9999 -9999 -9999 -9999 -9999 -9999 -9999 -9999 -9999 -9999 -9999 -9999 -9999 -9999 -9999 -9999 -9999 -9999 -9999 -9999 -9999 -9999 -9999 -9999 -9999 -9999 -9999 -9999 -9999 -9999 -9999 -9999 5 37 95 108 131 159 236 198 263 194 269 398 423 507 202 487 336 399 519 482 434 339 485 489 657 411 622 495 465 780 675 637 607 631 616 506 672 470 610 559 377 302 298 369 428 294 349 340 317 418 337 230 123 283 280 233 266 278 183 282 359 299 332 319 359 301 260 284 348 361 384 393 388 385 350 357 349 469 495 550 472 434 452 435 477 541 521 367 412 332 114 50 22 5 5 5 14 14 7 3 1 1 3 2 3 11 12 3 4 7 3 31 94 -9999
-9999 -9999 -9999 -9999 -9999 -9999 -9999 -9999 -9999 -9999 -9999 -9999 -9999 -9999 -9999 -9999 -9999 -9999 -9999 -9999 -9999 -9999 -9999 -9999 -9999 -9999 -9999 -9999 -9999 -9999 -9999 -9999 -9999 -9999 -9999 -9999 -9999 -9999 -9999 24 56 65 147 178 123 277 172 357 432 266 266 211 257 186 458 578 414 470 274 328 414 721 336 523 594 340 550 696 623 596 446 636 609 534 450 485 471 503 331 289 261 306 266 278 301 375 365 355 230 129 115 168 317 305 299 152 294 313 315 269 267 323 264 188 179 279 259 340 329 309 309 235 237 224 287 286 437 483 304 383 414 489 460 432 342 395 341 184 177 67 7 9 5 12 10 13 2 5 2 2 3 0 3 2 3 3 10 7 9 17 -9999
-9999 -9999 -9999 -9999 -9999 -9999 -9999 -9999 -9999 -9999 -9999 -9999 -9999 -9999 -9999 -9999 -9999 -9999 -9999 -9999 -9999 -9999 -9999 -9999 -9999 -9999 -9999 -9999 -9999 -9999 -9999 -9999 -9999 -9999 -9999 -9999 -9999 -9999 -9999 -9999 34 38 35 120 203 50 254 277 282 188 126 382 202 314 446 416 377 287 138 265 556 624 447 421 271 369 638 619 638 419 498 507 384 416 447 422 358 449 498 385 262 263 268 263 275 364 317 353 332 326 239 179 298 290 283 196 196 276 278 250 273 266 224 127 125 227 188 218 227 255 289 179 265 215 190 238 180 212 106 217 362 292 436 309 355 274 332 265 249 108 12 4 4 13 0 3 2 2 3 2 2 3 2 2 2 2 5 17 17 16 -9999
-9999 -9999 -9999 -9999 -9999 -9999 -9999 -9999 -9999 -9999 -9999 -9999 -9999 -9999 -9999 -9999 -9999 -9999 -9999 -9999 -9999 -9999 -9999 -9999 -9999 -9999 -9999 -9999 -9999 -9999 -9999 -9999 -9999 -9999 -9999 -9999 -9999 -9999 -9999 -9999 5 15 45 54 156 158 79 121 240 123 265 102 259 371 379 271 347 264 190 282 294 522 296 391 291 323 606 551 624 401 451 433 539 499 386 454 364 369 396 394 296 256 341 271 279 251 168 232 273 311 86 288 273 240 242 255 168 205 176 229 230 132 177 111 211 207 210 212 219 215 214 189 204 174 149 190 144 224 173 116 147 169 230 262 248 249 333 164 264 143 24 11 10 1 3 6 3 3 0 1 0 1 4 2 2 2 -1 2 28 17 -9999
-9999 -9999 -9999 -9999 -9999 -9999 -9999 -9999 -9999 -9999 -9999 -9999 -9999 -9999 -9999 -9999 -9999 -9999 -9999 -9999 -9999 -9999 -9999 -9999 -9999 -9999 -9999 -9999 -9999 -9999 -9999 -9999 -9999 -9999 -9999 -9999 -9999 -9999 -9999 -9999 -9999 -9999 -9999 26 25 87 104 102 204 64 227 117 339 262 380 221 282 182 185 272 332 461 174 515 283 217 554 498 473 514 429 249 412 474 363 342 341 418 297 269 249 248 268 260 274 224 99 96 137 181 150 291 263 235 228 284 241 158 142 205 101 128 173 170 165 158 187 197 188 124 152 132 132 141 151 159 133 186 178 73 99 140 208 92 170 187 177 125 243 153 28 3 5 2 2 8 3 5 3 1 1 4 2 2 2 -1 2 2 11 14 -9999
-9999 -9999 -9999 -9999 -9999 -9999 -9999 -9999 -9999 -9999 -9999 -9999 -9999 -9999 -9999 -9999 -9999 -9999 -9999 -9999 -9999 -9999 -9999 -9999 -9999 -9999 -9999 -9999 -9999 -9999 -9999 -9999 -9999 -9999 -9999 -9999 -9999 -9999 -9999 -9999 -9999 -9999 -9999 -9999 7 24 35 51 135 68 61 166 124 209 301 144 178 83 147 215 353 374 218 465 304 213 512 332 435 500 506 487 286 237 421 264 273 323 250 254 245 251 258 262 258 268 164 84 86 121 84 193 246 251 244 214 205 224 219 164 108 143 152 137 130 158 172 116 159 120 125 142 125 151 117 111 116 89 99 94 95 85 118 140 81 217 257 164 231 178 104 43 23 8 8 3 -1 1 2 3 3 1 2 0 -1 3 6 1 0 2 -9999
-9999 -9999 -9999 -9999 -9999 -9999 -9999 -9999 -9999 -9999 -9999 -9999 -9999 -9999 -9999 -9999 -9999 -9999 -9999 -9999 -9999 -9999 -9999 -9999 -9999 -9999 -9999 -9999 -9999 -9999 -9999 -9999 -9999 -9999 -9999 -9999 -9999 -9999 -9999 -9999 -9999 -9999 -9999 -9999 -9999 7 13 11 17 39 85 183 159 69 232 111 279 106 199 114 370 162 224 344 258 160 403 422 289 470 427 463 385 206 401 260 315 233 236 241 241 243 256 273 255 275 263 158 137 87 146 145 209 215 282 213 182 205 174 137 128 130 132 117 123 137 151 134 136 119 124 127 141 140 91 60 40 45 39 28 14 25 24 32 68 111 59 45 171 198 212 129 98 10 3 2 2 1 0 3 1 3 1 3 3 1 3 4 3 5 -9999
-9999 -9999 -9999 -9999 -9999 -9999 -9999 -9999 -9999 -9999 -9999 -9999 -9999 -9999 -9999 -9999 -9999 -9999 -9999 -9999 -9999 -9999 -9999 -9999 -9999 -9999 -9999 -9999 -9999 -9999 -9999 -9999 -9999 -9999 -9999 -9999 -9999 -9999 -9999 -9999 -9999 -9999 -9999 -9999 -9999 -9999 10 7 8 15 22 47 93 53 153 174 80 86 98 196 134 182 341 344 230 110 323 376 361 415 395 239 304 231 188 261 229 207 221 207 250 279 252 241 248 230 236 241 174 143 303 277 276 252 250 187 181 188 185 162 128 135 132 117 131 161 144 111 115 117 116 126 125 86 25 24 22 17 4 17 9 20 14 19 8 14 29 55 27 155 162 156 160 23 9 4 1 2 2 3 3 -9999 0 3 1 2 5 3 2 3 -9999
-9999 -9999 -9999 -9999 -9999 -9999 -9999 -9999 -9999 -9999 -9999 -9999 -9999 -9999 -9999 -9999 -9999 -9999 -9999 -9999 -9999 -9999 -9999 -9999 -9999 -9999 -9999 -9999 -9999 -9999 -9999 -9999 -9999 -9999 -9999 -9999 -9999 -9999 -9999 -9999 -9999 -9999 -9999 -9999 -9999 -9999 10 16 18 7 9 13 22 26 33 39 20 92 93 159 77 279 271 316 321 79 271 311 216 281 285 206 324 226 246 241 241 223 215 222 246 268 269 231 226 165 112 44 175 269 273 243 266 245 196 190 154 182 194 148 117 119 112 138 127 126 136 123 91 110 103 80 88 136 29 12 7 15 17 15 12 16 20 12 13 3 4 13 15 18 68 76 134 128 110 5 4 3 -9999 -9999 5 3 -9999 3 2 3 3 1 3 2 -9999
-9999 -9999 -9999 -9999 -9999 -9999 -9999 -9999 -9999 -9999 -9999 -9999 -9999 -9999 -9999 -9999 -9999 -9999 -9999 -9999 -9999 -9999 -9999 -9999 -9999 -9999 -9999 -9999 -9999 -9999 -9999 -9999 -9999 -9999 -9999 -9999 -9999 -9999 -9999 -9999 -9999 -9999 -9999 -9999 -9999 -9999 -9999 -9999 -9999 -9999 0 2 5 -9999 5 10 69 71 74 39 137 218 286 297 280 70 186 220 101 137 287 183 230 247 179 223 180 247 173 193 252 270 302 252 126 200 206 200 226 293 151 144 255 186 225 201 139 127 128 102 109 92 170 150 141 137 136 79 96 114 116 37 21 15 34 7 5 18 15 12 9 11 14 6 13 7 5 8 -9999 -9999 0 29 26 129 104 26 1 -9999 0 -9999 4 4 5 5 4 5 3 4 3 3 -9999
-9999 -9999 -9999 -9999 -9999 -9999 -9999 -9999 -9999 -9999 -9999 -9999 -9999 -9999 -9999 -9999 -9999 -9999 -9999 -9999 -9999 -9999 -9999 -9999 -9999 -9999 -9999 -9999 -9999 -9999 -9999 -9999 -9999 -9999 -9999 -9999 -9999 -9999 -9999 -9999 -9999 -9999 -9999 -9999 -9999 -9999 -9999 -9999 -9999 -9999 -9999 -9999 -9999 -9999 -9999 3 26 56 66 29 96 202 268 272 207 91 101 230 87 189 104 162 87 111 141 165 205 149 204 221 266 266 245 166 207 193 249 237 190 262 238 157 160 200 175 200 115 81 118 119 123 141 124 105 141 152 117 116 93 86 73 9 19 9 7 5 -9999 -9999 -9999 -9999 -9999 -9999 -9999 -9999 -9999 8 -9999 -9999 -9999 -9999 -9999 -9999 -9999 -9999 0 19 -9999 12 40 33 2 5 5 5 4 6 3 4 4 5 -9999
-9999 -9999 -9999 -9999 -9999 -9999 -9999 -9999 -9999 -9999 -9999 -9999 -9999 -9999 -9999 -9999 -9999 -9999 -9999 -9999 -9999 -9999 -9999 -9999 -9999 -9999 -9999 -9999 -9999 -9999 -9999 -9999 -9999 -9999 -9999 -9999 -9999 -9999 -9999 -9999 -9999 -9999 -9999 -9999 -9999 -9999 -9999 -9999 -9999 -9999 -9999 -9999 -9999 -9999 -9999 -9999 -9999 11 10 96 144 195 227 192 151 22 136 210 89 148 199 80 71 97 122 180 180 174 209 174 238 163 163 125 166 173 169 188 213 225 197 106 139 218 177 161 152 76 121 126 116 106 100 109 114 96 69 61 115 55 20 13 17 -9999 -9999 -9999 -9999 -9999 -9999 -9999 -9999 -9999 -9999 -9999 -9999 25 -9999 -9999 -9999 -9999 -9999 -9999 -9999 -9999 -9999 -9999 -9999 24 68 70 55 29 2 4 3 4 2 3 1 3 -9999
-9999 -9999 -9999 -9999 -9999 -9999 -9999 -9999 -9999 -9999 -9999 -9999 -9999 -9999 -9999 -9999 -9999 -9999 -9999 -9999 -9999 -9999 -9999 -9999 -9999 -9999 -9999 -9999 -9999 -9999 -9999 -9999 -9999 -9999 -9999 -9999 -9999 -9999 -9999 -9999 -9999 -9999 -9999 -9999 -9999 -9999 -9999 -9999 -9999 -9999 -9999 -9999 -9999 -9999 -9999 -9999 -9999 -9999 16 58 135 135 158 167 95 187 54 11 45 73 85 82 94 31 122 102 169 148 182 126 164 96 148 140 93 160 173 155 160 162 159 216 169 145 163 142 146 80 61 145 141 128 117 112 88 72 48 110 46 10 17 11 -9999 -9999 -9999 -9999 -9999 -9999 -9999 -9999 -9999 -9999 -9999 -9999 -9999 146 136 -9999 -9999 -9999 -9999 -9999 -9999 -9999 -9999 -9999 -9999 64 76 103 106 93 76 24 2 3 5 4 3 -9999 -9999
-9999 -9999 -9999 -9999 -9999 -9999 -9999 -9999 -9999 -9999 -9999 -9999 -9999 -9999 -9999 -9999 -9999 -9999 -9999 -9999 -9999 -9999 -9999 -9999 -9999 -9999 -9999 -9999 -9999 -9999 -9999 -9999 -9999 -9999 -9999 -9999 -9999 -9999 -9999 -9999 -9999 -9999 -9999 -9999 -9999 -9999 -9999 -9999 -9999 -9999 -9999 -9999 -9999 -9999 -9999 -9999 -9999 -9999 24 56 52 74 91 102 8 92 28 13 13 65 34 28 75 54 64 87 120 105 136 105 130 131 114 79 126 132 140 166 167 156 99 103 181 123 144 139 127 53 156 150 119 125 132 128 101 90 86 98 33 26 10 16 7 -9999 -9999 -9999 -9999 -9999 -9999 -9999 -9999 -9999 -9999 -9999 -9999 -9999 -9999 -9999 -9999 -9999 -9999 -9999 -9999 -9999 -9999 -9999 46 60 73 113 93 46 59 75 70 57 48 41 118 84 -9999
-9999 -9999 -9999 -9999 -9999 -9999 -9999 -9999 -9999 -9999 -9999 -9999 -9999 -9999 -9999 -9999 -9999 -9999 -9999 -9999 -9999 -9999 -9999 -9999 -9999 -9999 -9999 -9999 -9999 -9999 -9999 -9999 -9999 -9999 -9999 -9999 -9999 -9999 -9999 -9999 -9999 -9999 -9999 -9999 -9999 -9999 -9999 -9999 -9999 -9999 -9999 -9999 -9999 -9999 -9999 -9999 -9999 -9999 -9999 -9999 0 13 -9999 13 -9999 -9999 -9999 -9999 -9999 6 10 11 15 37 46 53 81 69 90 76 104 93 57 45 104 122 109 144 143 108 90 74 55 97 111 112 129 141 123 117 123 113 126 139 125 115 115 82 63 15 13 9 -9999 -9999 -9999 -9999 -9999 -9999 -9999 -9999 -9999 -9999 -9999 -9999 -9999 -9999 -9999 -9999 -9999 -9999 -9999 -9999 -9999 -9999 -9999 -9999 -9999 -9999 -9999 -9999 -9999 -9999 -9999 -9999 54 82 47 68 114 86 -9999
-9999 -9999 -9999 -9999 -9999 -9999 -9999 -9999 -9999 -9999 -9999 -9999 -9999 -9999 -9999 -9999 -9999 -9999 -9999 -9999 -9999 -9999 -9999 -9999 -9999 -9999 -9999 -9999 -9999 -9999 -9999 -9999 -9999 -9999 -9999 -9999 -9999 -9999 -9999 -9999 -9999 -9999 -9999 -9999 -9999 -9999 -9999 -9999 -9999 -9999 -9999 -9999 -9999 -9999 -9999 -9999 -9999 -9999 -9999 -9999 -9999 -9999 -9999 -9999 -9999 -9999 -9999 -9999 -9999 -9999 -9999 -9999 -9999 0 11 24 42 57 48 76 10 19 101 126 89 62 53 107 86 58 51 28 27 65 109 105 117 48 29 124 125 106 119 102 96 106 106 105 91 54 59 48 46 -9999 -9999 -9999 -9999 -9999 -9999 -9999 -9999 -9999 -9999 -9999 -9999 -9999 -9999 -9999 -9999 -9999 -9999 -9999 -9999 -9999 -9999 -9999 -9999 -9999 -9999 -9999 -9999 -9999 -9999 -9999 -9999 0 -9999 49 115 82 -9999
-9999 -9999 -9999 -9999 -9999 -9999 -9999 -9999 -9999 -9999 -9999 -9999 -9999 -9999 -9999 -9999 -9999 -9999 -9999 -9999 -9999 -9999 -9999 -9999 -9999 -9999 -9999 -9999 -9999 -9999 -9999 -9999 -9999 -9999 -9999 -9999 -9999 -9999 -9999 -9999 -9999 -9999 -9999 -9999 -9999 -9999 -9999 -9999 -9999 -9999 -9999 -9999 -9999 -9999 -9999 -9999 -9999 -9999 -9999 -9999 -9999 -9999 -9999 -9999 -9999 -9999 -9999 -9999 -9999 -9999 -9999 -9999 -9999 -9999 -9999 -9999 -9999 14 22 24 26 19 12 41 18 23 17 56 51 69 52 59 48 68 48 62 87 110 107 107 109 111 105 95 75 92 99 101 70 55 51 25 53 -9999 -9999 -9999 -9999 -9999 -9999 -9999 -9999 -9999 -9999 -9999 -9999 -9999 -9999 -9999 -9999 -9999 -9999 -9999 -9999 -9999 -9999 -9999 -9999 -9999 -9999 -9999 -9999 -9999 -9999 -9999 -9999 -9999 -9999 -9999 -9999 -9999 -9999
-9999 -9999 -9999 -9999 -9999 -9999 -9999 -9999 -9999 -9999 -9999 -9999 -9999 -9999 -9999 -9999 -9999 -9999 -9999 -9999 -9999 -9999 -9999 -9999 -9999 -9999 -9999 -9999 -9999 -9999 -9999 -9999 -9999 -9999 -9999 -9999 -9999 -9999 -9999 -9999 -9999 -9999 -9999 -9999 -9999 -9999 -9999 -9999 -9999 -9999 -9999 -9999 -9999 -9999 -9999 -9999 -9999 -9999 -9999 -9999 -9999 -9999 -9999 -9999 -9999 -9999 -9999 -9999 -9999 -9999 -9999 -9999 -9999 -9999 -9999 -9999 -9999 -9999 7 -9999 13 11 9 25 21 30 9 24 32 20 27 17 29 22 30 18 43 73 57 102 93 102 102 102 36 75 78 77 48 36 41 41 21 -9999 -9999 -9999 -9999 -9999 -9999 -9999 -9999 -9999 -9999 -9999 -9999 -9999 -9999 -9999 -9999 -9999 -9999 -9999 -9999 -9999 -9999 -9999 -9999 -9999 -9999 -9999 -9999 -9999 -9999 -9999 -9999 -9999 -9999 -9999 -9999 -9999 -9999
-9999 -9999 -9999 -9999 -9999 -9999 -9999 -9999 -9999 -9999 -9999 -9999 -9999 -9999 -9999 -9999 -9999 -9999 -9999 -9999 -9999 -9999 -9999 -9999 -9999 -9999 -9999 -9999 -9999 -9999 -9999 -9999 -9999 -9999 -9999 -9999 -9999 -9999 -9999 -9999 -9999 -9999 -9999 -9999 -9999 -9999 -9999 -9999 -9999 -9999 -9999 -9999 -9999 -9999 -9999 -9999 -9999 -9999 -9999 -9999 -9999 -9999 -9999 -9999 -9999 -9999 -9999 -9999 -9999 -9999 -9999 -9999 -9999 -9999 -9999 -9999 -9999 -9999 -9999 -9999 -9999 -9999 -9999 4 9 9 17 26 34 25 32 9 20 22 33 61 63 28 71 79 83 74 86 72 45 40 39 32 22 9 8 18 -9999 -9999 -9999 -9999 -9999 -9999 -9999 -9999 -9999 -9999 -9999 -9999 -9999 -9999 -9999 -9999 -9999 -9999 -9999 -9999 -9999 -9999 -9999 -9999 -9999 -9999 -9999 -9999 -9999 -9999 -9999 -9999 -9999 -9999 -9999 -9999 -9999 -9999 -9999
-9999 -9999 -9999 -9999 -9999 -9999 -9999 -9999 -9999 -9999 -9999 -9999 -9999 -9999 -9999 -9999 -9999 -9999 -9999 -9999 -9999 -9999 -9999 -9999 -9999 -9999 -9999 -9999 -9999 -9999 -9999 -9999 -9999 -9999 -9999 -9999 -9999 -9999 -9999 -9999 -9999 -9999 -9999 -9999 -9999 -9999 -9999 -9999 -9999 -9999 -9999 -9999 -9999 -9999 -9999 -9999 -9999 -9999 -9999 -9999 -9999 -9999 -9999 -9999 -9999 -9999 -9999 -9999 -9999 -9999 -9999 -9999 -9999 -9999 -9999 -9999 -9999 -9999 -9999 -9999 -9999 -9999 -9999 -9999 -9999 -9999 -9999 -9999 -9999 -9999 10 22 11 19 7 27 28 40 35 68 50 42 39 14 28 38 28 2 16 15 21 -9999 -9999 -9999 -9999 -9999 -9999 -9999 -9999 -9999 -9999 -9999 -9999 -9999 -9999 -9999 -9999 -9999 -9999 -9999 -9999 -9999 -9999 -9999 -9999 -9999 -9999 -9999 -9999 -9999 -9999 -9999 -9999 -9999 -9999 -9999 -9999 -9999 -9999 -9999 -9999
-9999 -9999 -9999 -9999 -9999 -9999 -9999 -9999 -9999 -9999 -9999 -9999 -9999 -9999 -9999 -9999 -9999 -9999 -9999 -9999 -9999 -9999 -9999 -9999 -9999 -9999 -9999 -9999 -9999 -9999 -9999 -9999 -9999 -9999 -9999 -9999 -9999 -9999 -9999 -9999 -9999 -9999 -9999 -9999 -9999 -9999 -9999 -9999 -9999 -9999 -9999 -9999 -9999 -9999 -9999 -9999 -9999 -9999 -9999 -9999 -9999 -9999 -9999 -9999 -9999 -9999 -9999 -9999 -9999 -9999 -9999 -9999 -9999 -9999 -9999 -9999 -9999 -9999 -9999 -9999 -9999 -9999 -9999 -9999 -9999 -9999 -9999 -9999 -9999 -9999 -9999 -9999 -9999 -9999 -9999 -9999 -9999 0 28 31 19 21 20 15 14 17 16 12 10 -9999 -9999 -9999 -9999 -9999 -9999 -9999 -9999 -9999 -9999 -9999 -9999 -9999 -9999 -9999 -9999 -9999 -9999 -9999 -9999 -9999 -9999 -9999 -9999 -9999 -9999 -9999 -9999 -9999 -9999 -9999 -9999 -9999 -9999 -9999 -9999 -9999 -9999 -9999 -9999 -9999 -9999
-9999 -9999 -9999 -9999 -9999 -9999 -9999 -9999 -9999 -9999 -9999 -9999 -9999 -9999 -9999 -9999 -9999 -9999 -9999 -9999 -9999 -9999 -9999 -9999 -9999 -9999 -9999 -9999 -9999 -9999 -9999 -9999 -9999 -9999 -9999 -9999 -9999 -9999 -9999 -9999 -9999 -9999 -9999 -9999 -9999 -9999 -9999 -9999 -9999 -9999 -9999 -9999 -9999 -9999 -9999 -9999 -9999 -9999 -9999 -9999 -9999 -9999 -9999 -9999 -9999 -9999 -9999 -9999 -9999 -9999 -9999 -9999 -9999 -9999 -9999 -9999 -9999 -9999 -9999 -9999 -9999 -9999 -9999 -9999 -9999 -9999 -9999 -9999 -9999 -9999 -9999 -9999 -9999 -9999 -9999 -9999 -9999 -9999 -9999 -9999 -9999 -9999 -9999 -9999 -9999 -9999 -9999 -9999 -9999 -9999 -9999 -9999 -9999 -9999 -9999 -9999 -9999 -9999 -9999 -9999 -9999 -9999 -9999 -9999 -9999 -9999 -9999 -9999 -9999 -9999 -9999 -9999 -9999 -9999 -9999 -9999 -9999 -9999 -9999 -9999 -9999 -9999 -9999 -9999 -9999 -9999 -9999 -9999 -9999 -9999 -9999
-9999 -9999 -9999 -9999 -9999 -9999 -9999 -9999 -9999 -9999 -9999 -9999 -9999 -9999 -9999 -9999 -9999 -9999 -9999 -9999 -9999 -9999 -9999 -9999 -9999 -9999 -9999 -9999 -9999 -9999 -9999 -9999 -9999 -9999 -9999 -9999 -9999 -9999 -9999 -9999 -9999 -9999 -9999 -9999 -9999 -9999 -9999 -9999 -9999 -9999 -9999 -9999 -9999 -9999 -9999 -9999 -9999 -9999 -9999 -9999 -9999 -9999 -9999 -9999 -9999 -9999 -9999 -9999 -9999 -9999 -9999 -9999 -9999 -9999 -9999 -9999 -9999 -9999 -9999 -9999 -9999 -9999 -9999 -9999 -9999 -9999 -9999 -9999 -9999 -9999 -9999 -9999 -9999 -9999 -9999 -9999 -9999 -9999 -9999 -9999 -9999 -9999 -9999 -9999 -9999 -9999 -9999 -9999 -9999 -9999 -9999 -9999 -9999 -9999 -9999 -9999 -9999 -9999 -9999 -9999 -9999 -9999 -9999 -9999 -9999 -9999 -9999 -9999 -9999 -9999 -9999 -9999 -9999 -9999 -9999 -9999 -9999 -9999 -9999 -9999 -9999 -9999 -9999 -9999 -9999 -9999 -9999 -9999 -9999 -9999 -9999
-9999 -9999 -9999 -9999 -9999 -9999 -9999 -9999 -9999 -9999 -9999 -9999 -9999 -9999 -9999 -9999 -9999 -9999 -9999 -9999 -9999 -9999 -9999 -9999 -9999 -9999 -9999 -9999 -9999 -9999 -9999 -9999 -9999 -9999 -9999 -9999 -9999 -9999 -9999 -9999 -9999 -9999 -9999 -9999 -9999 -9999 -9999 -9999 -9999 -9999 -9999 -9999 -9999 -9999 -9999 -9999 -9999 -9999 -9999 -9999 -9999 -9999 -9999 -9999 -9999 -9999 -9999 -9999 -9999 -9999 -9999 -9999 -9999 -9999 -9999 -9999 -9999 -9999 -9999 -9999 -9999 -9999 -9999 -9999 -9999 -9999 -9999 -9999 -9999 -9999 -9999 -9999 -9999 -9999 -9999 -9999 -9999 -9999 -9999 -9999 -9999 -9999 -9999 -9999 -9999 -9999 -9999 -9999 -9999 -9999 -9999 -9999 -9999 -9999 -9999 -9999 -9999 -9999 -9999 -9999 -9999 -9999 -9999 -9999 -9999 -9999 -9999 -9999 -9999 -9999 -9999 -9999 -9999 -9999 -9999 -9999 -9999 -9999 -9999 -9999 -9999 -9999 -9999 -9999 -9999 -9999 -9999 -9999 -9999 -9999 -9999
-9999 -9999 -9999 -9999 -9999 -9999 -9999 -9999 -9999 -9999 -9999 -9999 -9999 -9999 -9999 -9999 -9999 -9999 -9999 -9999 -9999 -9999 -9999 -9999 -9999 -9999 -9999 -9999 -9999 -9999 -9999 -9999 -9999 -9999 -9999 -9999 -9999 -9999 -9999 -9999 -9999 -9999 -9999 -9999 -9999 -9999 -9999 -9999 -9999 -9999 -9999 -9999 -9999 -9999 -9999 -9999 -9999 -9999 -9999 -9999 -9999 -9999 -9999 -9999 -9999 -9999 -9999 -9999 -9999 -9999 -9999 -9999 -9999 -9999 -9999 -9999 -9999 -9999 -9999 -9999 -9999 -9999 -9999 -9999 -9999 -9999 -9999 -9999 -9999 -9999 -9999 -9999 -9999 -9999 -9999 -9999 -9999 -9999 -9999 -9999 -9999 -9999 -9999 -9999 -9999 -9999 -9999 -9999 -9999 -9999 -9999 -9999 -9999 -9999 -9999 -9999 -9999 -9999 -9999 -9999 -9999 -9999 -9999 -9999 -9999 -9999 -9999 -9999 -9999 -9999 -9999 -9999 -9999 -9999 -9999 -9999 -9999 -9999 -9999 -9999 -9999 -9999 -9999 -9999 -9999 -9999 -9999 -9999 -9999 -9999 -9999
-9999 -9999 -9999 -9999 -9999 -9999 -9999 -9999 -9999 -9999 -9999 -9999 -9999 -9999 -9999 -9999 -9999 -9999 -9999 -9999 -9999 -9999 -9999 -9999 -9999 -9999 -9999 -9999 -9999 -9999 -9999 -9999 -9999 -9999 -9999 -9999 -9999 -9999 -9999 -9999 -9999 -9999 -9999 -9999 -9999 -9999 -9999 -9999 -9999 -9999 -9999 -9999 -9999 -9999 -9999 -9999 -9999 -9999 -9999 -9999 -9999 -9999 -9999 -9999 -9999 -9999 -9999 -9999 -9999 -9999 -9999 -9999 -9999 -9999 -9999 -9999 -9999 -9999 -9999 -9999 -9999 -9999 -9999 -9999 -9999 -9999 -9999 -9999 -9999 -9999 -9999 -9999 -9999 -9999 -9999 -9999 -9999 -9999 -9999 -9999 -9999 -9999 -9999 -9999 -9999 -9999 -9999 -9999 -9999 -9999 -9999 -9999 -9999 -9999 -9999 -9999 -9999 -9999 -9999 -9999 -9999 -9999 -9999 -9999 -9999 -9999 -9999 -9999 -9999 -9999 -9999 -9999 -9999 -9999 -9999 -9999 -9999 -9999 -9999 -9999 -9999 -9999 -9999 -9999 -9999 -9999 -9999 -9999 -9999 -9999 -9999
-9999 -9999 -9999 -9999 -9999 -9999 -9999 -9999 -9999 -9999 -9999 -9999 -9999 -9999 -9999 -9999 -9999 -9999 -9999 -9999 -9999 -9999 -9999 -9999 -9999 -9999 -9999 -9999 -9999 -9999 -9999 -9999 -9999 -9999 -9999 -9999 -9999 -9999 -9999 -9999 -9999 -9999 -9999 -9999 -9999 -9999 -9999 -9999 -9999 -9999 -9999 -9999 -9999 -9999 -9999 -9999 -9999 -9999 -9999 -9999 -9999 -9999 -9999 -9999 -9999 -9999 -9999 -9999 -9999 -9999 -9999 -9999 -9999 -9999 -9999 -9999 -9999 -9999 -9999 -9999 -9999 -9999 -9999 -9999 -9999 -9999 -9999 -9999 -9999 -9999 -9999 -9999 -9999 -9999 -9999 -9999 -9999 -9999 -9999 -9999 -9999 -9999 -9999 -9999 -9999 -9999 -9999 -9999 -9999 -9999 -9999 -9999 -9999 -9999 -9999 -9999 -9999 -9999 -9999 -9999 -9999 -9999 -9999 -9999 -9999 -9999 -9999 -9999 -9999 -9999 -9999 -9999 -9999 -9999 -9999 -9999 -9999 -9999 -9999 -9999 -9999 -9999 -9999 -9999 -9999 -9999 -9999 -9999 -9999 -9999 -9999
-9999 -9999 -9999 -9999 -9999 -9999 -9999 -9999 -9999 -9999 -9999 -9999 -9999 -9999 -9999 -9999 -9999 -9999 -9999 -9999 -9999 -9999 -9999 -9999 -9999 -9999 -9999 -9999 -9999 -9999 -9999 -9999 -9999 -9999 -9999 -9999 -9999 -9999 -9999 -9999 -9999 -9999 -9999 -9999 -9999 -9999 -9999 -9999 -9999 -9999 -9999 -9999 -9999 -9999 -9999 -9999 -9999 -9999 -9999 -9999 -9999 -9999 -9999 -9999 -9999 -9999 -9999 -9999 -9999 -9999 -9999 -9999 -9999 -9999 -9999 -9999 -9999 -9999 -9999 -9999 -9999 -9999 -9999 -9999 -9999 -9999 -9999 -9999 -9999 -9999 -9999 -9999 -9999 -9999 -9999 -9999 -9999 -9999 -9999 -9999 -9999 -9999 -9999 -9999 -9999 -9999 -9999 -9999 -9999 -9999 -9999 -9999 -9999 -9999 -9999 -9999 -9999 -9999 -9999 -9999 -9999 -9999 -9999 -9999 -9999 -9999 -9999 -9999 -9999 -9999 -9999 -9999 -9999 -9999 -9999 -9999 -9999 -9999 -9999 -9999 -9999 -9999 -9999 -9999 -9999 -9999 -9999 -9999 -9999 -9999 -9999
-9999 -9999 -9999 -9999 -9999 -9999 -9999 -9999 -9999 -9999 -9999 -9999 -9999 -9999 -9999 -9999 -9999 -9999 -9999 -9999 -9999 -9999 -9999 -9999 -9999 -9999 -9999 -9999 -9999 -9999 -9999 -9999 -9999 -9999 -9999 -9999 -9999 -9999 -9999 -9999 -9999 -9999 -9999 -9999 -9999 -9999 -9999 -9999 -9999 -9999 -9999 -9999 -9999 -9999 -9999 -9999 -9999 -9999 -9999 -9999 -9999 -9999 -9999 -9999 -9999 -9999 -9999 -9999 -9999 -9999 -9999 -9999 -9999 -9999 -9999 -9999 -9999 -9999 -9999 -9999 -9999 -9999 -9999 -9999 -9999 -9999 -9999 -9999 -9999 -9999 -9999 -9999 -9999 -9999 -9999 -9999 -9999 -9999 -9999 -9999 -9999 -9999 -9999 -9999 -9999 -9999 -9999 -9999 -9999 -9999 -9999 -9999 -9999 -9999 -9999 -9999 -9999 -9999 -9999 -9999 -9999 -9999 -9999 -9999 -9999 -9999 -9999 -9999 -9999 -9999 -9999 -9999 -9999 -9999 -9999 -9999 -9999 -9999 -9999 -9999 -9999 -9999 -9999 -9999 -9999 -9999 -9999 -9999 -9999 -9999 -9999
-9999 -9999 -9999 -9999 -9999 -9999 -9999 -9999 -9999 -9999 -9999 -9999 -9999 -9999 -9999 -9999 -9999 -9999 -9999 -9999 -9999 -9999 -9999 -9999 -9999 -9999 -9999 -9999 -9999 -9999 -9999 -9999 -9999 -9999 -9999 -9999 -9999 -9999 -9999 -9999 -9999 -9999 -9999 -9999 -9999 -9999 -9999 -9999 -9999 -9999 -9999 -9999 -9999 -9999 -9999 -9999 -9999 -9999 -9999 -9999 -9999 -9999 -9999 -9999 -9999 -9999 -9999 -9999 -9999 -9999 -9999 -9999 -9999 -9999 -9999 -9999 -9999 -9999 -9999 -9999 -9999 -9999 -9999 -9999 -9999 -9999 -9999 -9999 -9999 -9999 -9999 -9999 -9999 -9999 -9999 -9999 -9999 -9999 -9999 -9999 -9999 -9999 -9999 -9999 -9999 -9999 -9999 -9999 -9999 -9999 -9999 -9999 -9999 -9999 -9999 -9999 -9999 -9999 -9999 -9999 -9999 -9999 -9999 -9999 -9999 -9999 -9999 -9999 -9999 -9999 -9999 -9999 -9999 -9999 -9999 -9999 -9999 -9999 -9999 -9999 -9999 -9999 -9999 -9999 -9999 -9999 -9999 -9999 -9999 -9999 -9999
-9999 -9999 -9999 -9999 -9999 -9999 -9999 -9999 -9999 -9999 -9999 -9999 -9999 -9999 -9999 -9999 -9999 -9999 -9999 -9999 -9999 -9999 -9999 -9999 -9999 -9999 -9999 -9999 -9999 -9999 -9999 -9999 -9999 -9999 -9999 -9999 -9999 -9999 -9999 -9999 -9999 -9999 -9999 -9999 -9999 -9999 -9999 -9999 -9999 -9999 -9999 -9999 -9999 -9999 -9999 -9999 -9999 -9999 -9999 -9999 -9999 -9999 -9999 -9999 -9999 -9999 -9999 -9999 -9999 -9999 -9999 -9999 -9999 -9999 -9999 -9999 -9999 -9999 -9999 -9999 -9999 -9999 -9999 -9999 -9999 -9999 -9999 -9999 -9999 -9999 -9999 -9999 -9999 -9999 -9999 -9999 -9999 -9999 -9999 -9999 -9999 -9999 -9999 -9999 -9999 -9999 -9999 -9999 -9999 -9999 -9999 -9999 -9999 -9999 -9999 -9999 -9999 -9999 -9999 -9999 -9999 -9999 -9999 -9999 -9999 -9999 -9999 -9999 -9999 -9999 -9999 -9999 -9999 -9999 -9999 -9999 -9999 -9999 -9999 -9999 -9999 -9999 -9999 -9999 -9999 -9999 -9999 -9999 -9999 -9999 -9999
-9999 -9999 -9999 -9999 -9999 -9999 -9999 -9999 -9999 -9999 -9999 -9999 -9999 -9999 -9999 -9999 -9999 -9999 -9999 -9999 -9999 -9999 -9999 -9999 -9999 -9999 -9999 -9999 -9999 -9999 -9999 -9999 -9999 -9999 -9999 -9999 -9999 -9999 -9999 -9999 -9999 -9999 -9999 -9999 -9999 -9999 -9999 -9999 -9999 -9999 -9999 -9999 -9999 -9999 -9999 -9999 -9999 -9999 -9999 -9999 -9999 -9999 -9999 -9999 -9999 -9999 -9999 -9999 -9999 -9999 -9999 -9999 -9999 -9999 -9999 -9999 -9999 -9999 -9999 -9999 -9999 -9999 -9999 -9999 -9999 -9999 -9999 -9999 -9999 -9999 -9999 -9999 -9999 -9999 -9999 -9999 -9999 -9999 -9999 -9999 -9999 -9999 -9999 -9999 -9999 -9999 -9999 -9999 -9999 -9999 -9999 -9999 -9999 -9999 -9999 -9999 -9999 -9999 -9999 -9999 -9999 -9999 -9999 -9999 -9999 -9999 -9999 -9999 -9999 -9999 -9999 -9999 -9999 -9999 -9999 -9999 -9999 -9999 -9999 -9999 -9999 -9999 -9999 -9999 -9999 -9999 -9999 -9999 -9999 -9999 -9999
-9999 -9999 -9999 -9999 -9999 -9999 -9999 -9999 -9999 -9999 -9999 -9999 -9999 -9999 -9999 -9999 -9999 -9999 -9999 -9999 -9999 -9999 -9999 -9999 -9999 -9999 -9999 -9999 -9999 -9999 -9999 -9999 -9999 -9999 -9999 -9999 -9999 -9999 -9999 -9999 -9999 -9999 -9999 -9999 -9999 -9999 -9999 -9999 -9999 -9999 -9999 -9999 -9999 -9999 -9999 -9999 -9999 -9999 -9999 -9999 -9999 -9999 -9999 -9999 -9999 -9999 -9999 -9999 -9999 -9999 -9999 -9999 -9999 -9999 -9999 -9999 -9999 -9999 -9999 -9999 -9999 -9999 -9999 -9999 -9999 -9999 -9999 -9999 -9999 -9999 -9999 -9999 -9999 -9999 -9999 -9999 -9999 -9999 -9999 -9999 -9999 -9999 -9999 -9999 -9999 -9999 -9999 -9999 -9999 -9999 -9999 -9999 -9999 -9999 -9999 -9999 -9999 -9999 -9999 -9999 -9999 -9999 -9999 -9999 -9999 -9999 -9999 -9999 -9999 -9999 -9999 -9999 -9999 -9999 -9999 -9999 -9999 -9999 -9999 -9999 -9999 -9999 -9999 -9999 -9999 -9999 -9999 -9999 -9999 -9999 -9999
-9999 -9999 -9999 -9999 -9999 -9999 -9999 -9999 -9999 -9999 -9999 -9999 -9999 -9999 -9999 -9999 -9999 -9999 -9999 -9999 -9999 -9999 -9999 -9999 -9999 -9999 -9999 -9999 -9999 -9999 -9999 -9999 -9999 -9999 -9999 -9999 -9999 -9999 -9999 -9999 -9999 -9999 -9999 -9999 -9999 -9999 -9999 -9999 -9999 -9999 -9999 -9999 -9999 -9999 -9999 -9999 -9999 -9999 -9999 -9999 -9999 -9999 -9999 -9999 -9999 -9999 -9999 -9999 -9999 -9999 -9999 -9999 -9999 -9999 -9999 -9999 -9999 -9999 -9999 -9999 -9999 -9999 -9999 -9999 -9999 -9999 -9999 -9999 -9999 -9999 -9999 -9999 -9999 -9999 -9999 -9999 -9999 -9999 -9999 -9999 -9999 -9999 -9999 -9999 -9999 -9999 -9999 -9999 -9999 -9999 -9999 -9999 -9999 -9999 -9999 -9999 -9999 -9999 -9999 -9999 -9999 -9999 -9999 -9999 -9999 -9999 -9999 -9999 -9999 -9999 -9999 -9999 -9999 -9999 -9999 -9999 -9999 -9999 -9999 -9999 -9999 -9999 -9999 -9999 -9999 -9999 -9999 -9999 -9999 -9999 -9999
-9999 -9999 -9999 -9999 -9999 -9999 -9999 -9999 -9999 -9999 -9999 -9999 -9999 -9999 -9999 -9999 -9999 -9999 -9999 -9999 -9999 -9999 -9999 -9999 -9999 -9999 -9999 -9999 -9999 -9999 -9999 -9999 -9999 -9999 -9999 -9999 -9999 -9999 -9999 -9999 -9999 -9999 -9999 -9999 -9999 -9999 -9999 -9999 -9999 -9999 -9999 -9999 -9999 -9999 -9999 -9999 -9999 -9999 -9999 -9999 -9999 -9999 -9999 -9999 -9999 -9999 -9999 -9999 -9999 -9999 -9999 -9999 -9999 -9999 -9999 -9999 -9999 -9999 -9999 -9999 -9999 -9999 -9999 -9999 -9999 -9999 -9999 -9999 -9999 -9999 -9999 -9999 -9999 -9999 -9999 -9999 -9999 -9999 -9999 -9999 -9999 -9999 -9999 -9999 -9999 -9999 -9999 -9999 -9999 -9999 -9999 -9999 -9999 -9999 -9999 -9999 -9999 -9999 -9999 -9999 -9999 -9999 -9999 -9999 -9999 -9999 -9999 -9999 -9999 -9999 -9999 -9999 -9999 -9999 -9999 -9999 -9999 -9999 -9999 -9999 -9999 -9999 -9999 -9999 -9999 -9999 -9999 -9999 -9999 -9999 -9999
-9999 -9999 -9999 -9999 -9999 -9999 -9999 -9999 -9999 -9999 -9999 -9999 -9999 -9999 -9999 -9999 -9999 -9999 -9999 -9999 -9999 -9999 -9999 -9999 -9999 -9999 -9999 -9999 -9999 -9999 -9999 -9999 -9999 -9999 -9999 -9999 -9999 -9999 -9999 -9999 -9999 -9999 -9999 -9999 -9999 -9999 -9999 -9999 -9999 -9999 -9999 -9999 -9999 -9999 -9999 -9999 -9999 -9999 -9999 -9999 -9999 -9999 -9999 -9999 -9999 -9999 -9999 -9999 -9999 -9999 -9999 -9999 -9999 -9999 -9999 -9999 -9999 -9999 -9999 -9999 -9999 -9999 -9999 -9999 -9999 -9999 -9999 -9999 -9999 -9999 -9999 -9999 -9999 -9999 -9999 -9999 -9999 -9999 -9999 -9999 -9999 -9999 -9999 -9999 -9999 -9999 -9999 -9999 -9999 -9999 -9999 -9999 -9999 -9999 -9999 -9999 -9999 -9999 -9999 -9999 -9999 -9999 -9999 -9999 -9999 -9999 -9999 -9999 -9999 -9999 -9999 -9999 -9999 -9999 -9999 -9999 -9999 -9999 -9999 -9999 -9999 -9999 -9999 -9999 -9999 -9999 -9999 -9999 -9999 -9999 -9999
-9999 -9999 -9999 -9999 -9999 -9999 -9999 -9999 -9999 -9999 -9999 -9999 -9999 -9999 -9999 -9999 -9999 -9999 -9999 -9999 -9999 -9999 -9999 -9999 -9999 -9999 -9999 -9999 -9999 -9999 -9999 -9999 -9999 -9999 -9999 -9999 -9999 -9999 -9999 -9999 -9999 -9999 -9999 -9999 -9999 -9999 -9999 -9999 -9999 -9999 -9999 -9999 -9999 -9999 -9999 -9999 -9999 -9999 -9999 -9999 -9999 -9999 -9999 -9999 -9999 -9999 -9999 -9999 -9999 -9999 -9999 -9999 -9999 -9999 -9999 -9999 -9999 -9999 -9999 -9999 -9999 -9999 -9999 -9999 -9999 -9999 -9999 -9999 -9999 -9999 -9999 -9999 -9999 -9999 -9999 -9999 -9999 -9999 -9999 -9999 -9999 -9999 -9999 -9999 -9999 -9999 -9999 -9999 -9999 -9999 -9999 -9999 -9999 -9999 -9999 -9999 -9999 -9999 -9999 -9999 -9999 -9999 -9999 -9999 -9999 -9999 -9999 -9999 -9999 -9999 -9999 -9999 -9999 -9999 -9999 -9999 -9999 -9999 -9999 -9999 -9999 -9999 -9999 -9999 -9999 -9999 -9999 -9999 -9999 -9999 -9999
-9999 -9999 -9999 -9999 -9999 -9999 -9999 -9999 -9999 -9999 -9999 -9999 -9999 -9999 -9999 -9999 -9999 -9999 -9999 -9999 -9999 -9999 -9999 -9999 -9999 -9999 -9999 -9999 -9999 -9999 -9999 -9999 -9999 -9999 -9999 -9999 -9999 -9999 -9999 -9999 -9999 -9999 -9999 -9999 -9999 -9999 -9999 -9999 -9999 -9999 -9999 -9999 -9999 -9999 -9999 -9999 -9999 -9999 -9999 -9999 -9999 -9999 -9999 -9999 -9999 -9999 -9999 -9999 -9999 -9999 -9999 -9999 -9999 -9999 -9999 -9999 -9999 -9999 -9999 -9999 -9999 -9999 -9999 -9999 -9999 -9999 -9999 -9999 -9999 -9999 -9999 -9999 -9999 -9999 -9999 -9999 -9999 -9999 -9999 -9999 -9999 -9999 -9999 -9999 -9999 -9999 -9999 -9999 -9999 -9999 -9999 -9999 -9999 -9999 -9999 -9999 -9999 -9999 -9999 -9999 -9999 -9999 -9999 -9999 -9999 -9999 -9999 -9999 -9999 -9999 -9999 -9999 -9999 -9999 -9999 -9999 -9999 -9999 -9999 -9999 -9999 -9999 -9999 -9999 -9999 -9999 -9999 -9999 -9999 -9999 -9999
-9999 -9999 -9999 -9999 -9999 -9999 -9999 -9999 -9999 -9999 -9999 -9999 -9999 -9999 -9999 -9999 -9999 -9999 -9999 -9999 -9999 -9999 -9999 -9999 -9999 -9999 -9999 -9999 -9999 -9999 -9999 -9999 -9999 -9999 -9999 -9999 -9999 -9999 -9999 -9999 -9999 -9999 -9999 -9999 -9999 -9999 -9999 -9999 -9999 -9999 -9999 -9999 -9999 -9999 -9999 -9999 -9999 -9999 -9999 -9999 -9999 -9999 -9999 -9999 -9999 -9999 -9999 -9999 -9999 -9999 -9999 -9999 -9999 -9999 -9999 -9999 -9999 -9999 -9999 -9999 -9999 -9999 -9999 -9999 -9999 -9999 -9999 -9999 -9999 -9999 -9999 -9999 -9999 -9999 -9999 -9999 -9999 -9999 -9999 -9999 -9999 -9999 -9999 -9999 -9999 -9999 -9999 -9999 -9999 -9999 -9999 -9999 -9999 -9999 -9999 -9999 -9999 -9999 -9999 -9999 -9999 -9999 -9999 -9999 -9999 -9999 -9999 -9999 -9999 -9999 -9999 -9999 -9999 -9999 -9999 -9999 -9999 -9999 -9999 -9999 -9999 -9999 -9999 -9999 -9999 -9999 -9999 -9999 -9999 -9999 -9999
-9999 -9999 -9999 -9999 -9999 -9999 -9999 -9999 -9999 -9999 -9999 -9999 -9999 -9999 -9999 -9999 -9999 -9999 -9999 -9999 -9999 -9999 -9999 -9999 -9999 -9999 -9999 -9999 -9999 -9999 -9999 -9999 -9999 -9999 -9999 -9999 -9999 -9999 -9999 -9999 -9999 -9999 -9999 -9999 -9999 -9999 -9999 -9999 -9999 -9999 -9999 -9999 -9999 -9999 -9999 -9999 -9999 -9999 -9999 -9999 -9999 -9999 -9999 -9999 -9999 -9999 -9999 -9999 -9999 -9999 -9999 -9999 -9999 -9999 -9999 -9999 -9999 -9999 -9999 -9999 -9999 -9999 -9999 -9999 -9999 -9999 -9999 -9999 -9999 -9999 -9999 -9999 -9999 -9999 -9999 -9999 -9999 -9999 -9999 -9999 -9999 -9999 -9999 -9999 -9999 -9999 -9999 -9999 -9999 -9999 -9999 -9999 -9999 -9999 -9999 -9999 -9999 -9999 -9999 -9999 -9999 -9999 -9999 -9999 -9999 -9999 -9999 -9999 -9999 -9999 -9999 -9999 -9999 -9999 -9999 -9999 -9999 -9999 -9999 -9999 -9999 -9999 -9999 -9999 -9999 -9999 -9999 -9999 -9999 -9999 -9999
-9999 -9999 -9999 -9999 -9999 -9999 -9999 -9999 -9999 -9999 -9999 -9999 -9999 -9999 -9999 -9999 -9999 -9999 -9999 -9999 -9999 -9999 -9999 -9999 -9999 -9999 -9999 -9999 -9999 -9999 -9999 -9999 -9999 -9999 -9999 -9999 -9999 -9999 -9999 -9999 -9999 -9999 -9999 -9999 -9999 -9999 -9999 -9999 -9999 -9999 -9999 -9999 -9999 -9999 -9999 -9999 -9999 -9999 -9999 -9999 -9999 -9999 -9999 -9999 -9999 -9999 -9999 -9999 -9999 -9999 -9999 -9999 -9999 -9999 -9999 -9999 -9999 -9999 -9999 -9999 -9999 -9999 -9999 -9999 -9999 -9999 -9999 -9999 -9999 -9999 -9999 -9999 -9999 -9999 -9999 -9999 -9999 -9999 -9999 -9999 -9999 -9999 -9999 -9999 -9999 -9999 -9999 -9999 -9999 -9999 -9999 -9999 -9999 -9999 -9999 -9999 -9999 -9999 -9999 -9999 -9999 -9999 -9999 -9999 -9999 -9999 -9999 -9999 -9999 -9999 -9999 -9999 -9999 -9999 -9999 -9999 -9999 -9999 -9999 -9999 -9999 -9999 -9999 -9999 -9999 -9999 -9999 -9999 -9999 -9999 -9999
-9999 -9999 -9999 -9999 -9999 -9999 -9999 -9999 -9999 -9999 -9999 -9999 -9999 -9999 -9999 -9999 -9999 -9999 -9999 -9999 -9999 -9999 -9999 -9999 -9999 -9999 -9999 -9999 -9999 -9999 -9999 -9999 -9999 -9999 -9999 -9999 -9999 -9999 -9999 -9999 -9999 -9999 -9999 -9999 -9999 -9999 -9999 -9999 -9999 -9999 -9999 -9999 -9999 -9999 -9999 -9999 -9999 -9999 -9999 -9999 -9999 -9999 -9999 -9999 -9999 -9999 -9999 -9999 -9999 -9999 -9999 -9999 -9999 -9999 -9999 -9999 -9999 -9999 -9999 -9999 -9999 -9999 -9999 -9999 -9999 -9999 -9999 -9999 -9999 -9999 -9999 -9999 -9999 -9999 -9999 -9999 -9999 -9999 -9999 -9999 -9999 -9999 -9999 -9999 -9999 -9999 -9999 -9999 -9999 -9999 -9999 -9999 -9999 -9999 -9999 -9999 -9999 -9999 -9999 -9999 -9999 -9999 -9999 -9999 -9999 -9999 -9999 -9999 -9999 -9999 -9999 -9999 -9999 -9999 -9999 -9999 -9999 -9999 -9999 -9999 -9999 -9999 -9999 -9999 -9999 -9999 -9999 -9999 -9999 -9999 -9999
