ncols         151
nrows         142
xllcorner     714418
yllcorner     9116822
cellsize      1342
NODATA_value  -9999
-9999 24 23 27 29 25 29 27 20 23 19 23 20 24 23 21 22 18 14 11 10 9 13 16 12 12 10 10 10 7 7 8 8 9 9 7 8 12 7 7 6 3 3 6 7 5 6 7 7 5 11 12 6 6 7 6 4 -1 -1 -1 0 0 -1 2 0 6 6 1 1 2 1 2 2 3 0 3 7 7 4 2 6 2 1 5 1 -9999 -9999 -9999 -9999 -9999 -9999 -9999 -9999 -9999 -9999 -9999 -9999 -9999 -9999 -9999 -9999 -9999 -9999 -9999 -9999 3 0 -1 -2 -2 -2 2 2 2 -9999 -9999 2 -9999 -9999 -9999 -9999 -9999 -9999 -9999 -9999 -9999 -9999 -9999 -9999 -9999 -9999 -9999 -9999 -9999 -9999 -9999 -9999 -9999 -9999 -9999 -9999 -9999 -9999 -9999 -9999 -9999 -9999 -9999 -9999 -9999 -9999
-9999 21 24 26 30 26 27 22 27 30 23 28 25 26 29 26 24 17 15 14 13 13 12 13 13 13 15 14 12 10 10 9 10 9 9 11 8 10 10 7 10 4 6 12 7 6 10 9 7 9 11 7 14 7 9 5 6 5 4 5 3 -1 4 7 3 1 1 1 0 2 2 2 4 7 4 7 5 9 4 6 3 1 5 1 1 3 -9999 -9999 -9999 -9999 -9999 -9999 -9999 -9999 -9999 -9999 -9999 -9999 -9999 -9999 -9999 -9999 -9999 -9999 -9999 4 1 1 2 -1 -1 1 -3 0 -3 -1 -1 -2 -9999 -9999 -9999 -9999 -9999 -9999 -9999 -9999 -9999 -9999 -9999 -9999 -9999 -9999 -9999 -9999 -9999 -9999 -9999 -9999 -9999 -9999 -9999 -9999 -9999 -9999 -9999 -9999 -9999 -9999 -9999 -9999 -9999
-9999 31 29 33 32 32 25 30 32 28 24 32 27 27 29 24 24 25 21 18 17 19 14 15 14 16 13 10 13 14 11 12 12 13 12 11 10 12 11 10 9 14 10 13 14 10 11 11 10 11 11 11 10 10 9 8 10 6 3 4 3 3 2 7 2 2 1 3 0 2 4 8 6 5 10 7 6 10 6 5 6 3 5 4 3 3 4 2 -9999 -9999 -9999 -9999 -9999 -9999 -9999 -9999 -9999 -9999 -9999 -9999 -9999 -9999 -9999 3 5 0 4 3 3 1 0 1 -1 -1 0 2 1 -2 -9999 -9999 -9999 -9999 -9999 -9999 -9999 -9999 -9999 -9999 -9999 -9999 -9999 -9999 -9999 -9999 -9999 -9999 -9999 -9999 -9999 -9999 -9999 -9999 -9999 -9999 -9999 -9999 -9999 -9999 -9999 -9999 -9999
-9999 44 28 37 40 36 34 29 36 38 38 39 29 36 28 34 29 28 20 19 21 18 16 18 16 14 16 14 13 16 14 13 14 13 12 11 15 11 11 14 11 15 9 10 16 12 12 14 10 13 12 13 15 13 10 12 10 8 6 8 6 4 4 3 5 5 5 8 5 6 5 7 6 11 9 10 7 7 6 7 9 6 6 8 6 4 5 5 3 2 -9999 -9999 -9999 -9999 -9999 -9999 -9999 -9999 -9999 -9999 -9999 -9999 0 0 0 4 0 2 3 0 2 0 2 4 2 2 0 -1 -9999 -9999 -9999 -9999 -9999 -9999 -9999 -9999 -9999 -9999 -9999 -9999 -9999 -9999 -9999 -9999 -9999 -9999 -9999 -9999 -9999 -9999 -9999 -9999 -9999 -9999 -9999 -9999 -9999 -9999 -9999 -9999 -9999
-9999 49 40 39 38 31 37 44 40 34 40 32 37 39 27 39 36 28 22 22 24 20 17 18 14 14 12 14 12 14 16 15 16 12 16 12 12 18 13 18 10 10 13 18 14 16 16 16 14 15 14 15 13 15 17 14 12 10 10 10 8 9 3 6 6 7 8 6 7 7 7 11 10 7 16 9 9 10 7 12 6 8 8 6 8 6 12 11 5 3 3 4 -9999 -9999 -9999 -9999 -9999 -9999 -9999 -9999 -9999 0 2 7 3 2 3 0 -1 6 1 -2 1 4 0 2 2 -1 -9999 -9999 -9999 -9999 -9999 -9999 -9999 -9999 -9999 -9999 -9999 -9999 -9999 -9999 -9999 -9999 -9999 -9999 -9999 -9999 -9999 -9999 -9999 -9999 -9999 -9999 -9999 -9999 -9999 -9999 -9999 -9999 -9999
-9999 43 44 44 43 43 40 35 36 43 39 39 43 34 44 41 39 30 29 31 20 17 18 19 20 17 16 14 16 20 15 12 16 15 19 16 25 15 16 19 13 19 15 13 17 20 18 17 19 16 15 22 18 20 16 15 12 13 12 11 9 13 11 9 5 7 7 9 9 9 10 8 10 8 9 9 11 9 8 13 10 12 10 13 9 11 8 8 7 2 2 2 2 3 5 -9999 -9999 -9999 -9999 0 2 -1 -1 1 3 0 3 1 0 2 1 1 3 2 4 1 1 6 -9999 -9999 -9999 -9999 -9999 -9999 -9999 -9999 -9999 -9999 -9999 -9999 -9999 -9999 -9999 -9999 -9999 -9999 -9999 -9999 -9999 -9999 -9999 -9999 -9999 -9999 -9999 -9999 -9999 -9999 -9999 -9999 -9999
-9999 36 35 54 45 44 39 39 40 42 40 44 30 34 48 41 33 28 46 37 26 25 21 19 17 27 23 22 21 21 20 15 17 22 21 20 22 19 25 16 21 15 14 14 20 19 18 20 21 21 18 20 18 18 18 22 16 14 12 13 14 9 7 11 9 10 9 10 11 11 15 8 9 14 10 10 17 10 10 12 10 9 11 9 11 9 8 6 5 4 1 2 0 -1 3 1 -3 -9999 -3 -2 0 1 1 1 1 0 2 -2 -1 -1 5 -1 2 1 6 5 2 0 2 -9999 -9999 -9999 -9999 -9999 -9999 -9999 -9999 -9999 -9999 -9999 -9999 -9999 -9999 -9999 -9999 -9999 -9999 -9999 -9999 -9999 -9999 -9999 -9999 -9999 -9999 -9999 -9999 -9999 -9999 -9999 -9999
-9999 63 35 63 52 54 49 54 51 39 48 35 40 55 44 53 60 52 44 41 44 30 28 24 37 27 44 40 39 40 18 16 16 22 24 22 21 21 24 19 23 18 21 23 17 21 18 26 25 25 25 26 25 25 20 19 16 14 14 15 13 9 11 9 10 13 9 12 14 9 12 15 11 14 9 13 16 16 14 11 11 11 12 13 15 9 9 6 7 6 4 1 0 2 2 3 1 3 1 6 0 3 -2 -1 -1 3 0 4 6 3 3 2 0 2 1 2 5 7 8 -9999 -9999 -9999 -9999 -9999 -9999 -9999 -9999 -9999 -9999 -9999 -9999 -9999 -9999 -9999 -9999 -9999 -9999 -9999 -9999 -9999 -9999 -9999 -9999 -9999 -9999 -9999 -9999 -9999 -9999 -9999 -9999
-9999 64 47 54 51 56 54 56 46 50 43 34 51 56 59 45 38 57 51 49 51 28 24 22 33 49 48 52 48 33 34 32 22 16 21 30 26 26 25 18 22 23 26 19 24 22 23 23 27 21 29 27 27 25 19 17 18 15 14 14 11 10 9 4 9 14 15 13 15 14 12 11 12 11 12 17 16 11 11 16 11 12 13 15 13 12 9 11 7 4 5 2 4 2 1 2 4 0 -1 2 0 4 1 1 0 1 0 1 0 2 1 8 1 4 3 7 2 1 5 2 -9999 -9999 -9999 -9999 -9999 -9999 -9999 -9999 -9999 -9999 -9999 -9999 -9999 -9999 -9999 -9999 -9999 -9999 -9999 -9999 -9999 -9999 -9999 -9999 -9999 -9999 -9999 -9999 -9999 -9999 -9999
-9999 69 71 64 59 55 54 52 63 62 35 52 54 50 60 47 53 48 58 56 42 35 24 25 35 73 68 70 58 32 25 36 26 17 20 28 29 25 23 30 24 30 22 28 23 21 25 31 27 28 28 30 28 27 24 19 17 16 19 16 18 13 13 7 16 17 12 19 18 15 12 20 13 12 13 13 14 21 14 16 13 14 17 14 13 12 12 9 7 6 7 3 6 2 1 3 3 1 3 -2 0 -2 -3 1 0 1 5 0 0 2 1 2 10 14 5 2 1 3 6 3 -9999 -9999 -9999 -9999 -9999 -9999 -9999 -9999 -9999 -9999 -9999 -9999 -9999 -9999 -9999 -9999 -9999 -9999 -9999 -9999 -9999 -9999 -9999 -9999 -9999 -9999 -9999 -9999 -9999 -9999 -9999
-9999 58 69 63 66 66 63 57 58 60 46 57 61 56 54 46 54 52 46 29 24 20 22 22 55 46 86 101 70 45 53 40 29 25 11 19 34 40 38 31 27 27 33 36 25 26 27 30 34 31 32 29 28 25 21 22 20 22 17 17 22 11 14 6 13 13 15 15 21 21 18 17 15 17 20 16 16 23 16 14 21 20 18 13 18 13 11 11 8 7 5 6 4 4 2 3 3 2 2 4 1 1 -1 1 1 1 1 1 1 3 0 3 9 5 0 2 5 4 3 5 4 -9999 -9999 -9999 -9999 -9999 -9999 -9999 -9999 -9999 -9999 -9999 -9999 -9999 -9999 -9999 -9999 -9999 -9999 -9999 -9999 -9999 -9999 -9999 -9999 -9999 -9999 -9999 -9999 -9999 -9999
-9999 52 72 68 61 67 64 54 53 59 46 66 54 56 48 54 58 42 31 23 31 32 25 25 58 74 86 97 50 78 60 40 35 23 22 24 40 50 45 53 37 34 43 47 41 44 33 34 39 34 32 31 31 26 22 24 21 19 19 18 14 22 25 25 24 25 26 22 29 22 22 17 17 14 18 22 17 17 19 20 21 17 13 16 13 10 11 8 8 9 5 5 5 4 4 7 4 2 2 3 4 1 0 2 2 3 0 1 2 3 5 7 4 2 2 4 1 4 4 2 5 5 -9999 -9999 -9999 -9999 -9999 -9999 -9999 -9999 -9999 -9999 -9999 -9999 -9999 -9999 -9999 -9999 -9999 -9999 -9999 -9999 -9999 -9999 -9999 -9999 -9999 -9999 -9999 -9999 -9999
-9999 65 76 75 66 64 65 67 55 41 57 60 61 54 49 49 47 35 30 30 61 40 35 29 56 55 72 55 83 97 93 81 40 29 28 24 23 25 41 58 68 56 42 54 52 55 40 38 40 37 32 35 31 27 22 26 24 28 27 19 25 30 31 29 26 29 31 26 25 22 26 19 16 15 16 17 19 22 20 20 18 18 15 13 17 17 12 11 9 11 7 8 9 10 6 6 6 5 3 4 3 5 5 5 2 0 4 2 6 5 6 5 8 2 2 6 2 2 7 2 5 2 2 -9999 -9999 -9999 -9999 -9999 -9999 -9999 -9999 -9999 -9999 -9999 -9999 -9999 -9999 -9999 -9999 -9999 -9999 -9999 -9999 -9999 -9999 -9999 -9999 -9999 -9999 -9999 -9999
-9999 74 89 78 76 64 66 60 63 63 64 63 59 52 38 34 32 29 29 49 56 30 41 42 35 44 75 68 83 87 114 72 39 64 54 24 26 29 29 35 67 67 61 56 67 58 57 41 40 38 36 37 30 29 26 27 27 24 27 30 33 32 32 28 26 32 29 27 24 26 22 22 18 18 18 20 18 19 21 22 20 18 20 16 14 16 14 15 13 13 10 9 10 11 11 8 10 8 7 6 5 4 4 2 4 2 1 5 8 10 7 11 3 5 4 4 3 3 4 4 2 3 4 3 -9999 -9999 -9999 -9999 -9999 -9999 -9999 -9999 -9999 -9999 -9999 -9999 -9999 -9999 -9999 -9999 -9999 -9999 -9999 -9999 -9999 -9999 -9999 -9999 -9999 -9999 -9999
-9999 96 84 77 82 71 75 69 54 59 60 65 51 40 37 52 32 34 45 54 65 45 43 64 64 92 102 92 74 71 76 84 42 70 57 32 29 38 39 52 50 77 63 67 59 63 64 41 41 42 42 36 31 46 32 38 25 27 30 31 39 39 29 36 33 33 38 33 34 34 23 21 23 26 24 19 21 21 21 22 19 23 20 18 17 18 16 15 16 14 13 13 10 9 15 9 10 9 7 7 7 5 5 4 4 2 3 4 6 3 6 9 10 5 4 3 5 3 8 4 3 3 3 7 3 -9999 -9999 -9999 -9999 -9999 -9999 -9999 -9999 -9999 -9999 -9999 -9999 -9999 -9999 -9999 -9999 -9999 -9999 -9999 -9999 -9999 -9999 -9999 -9999 -9999 -9999
-9999 90 88 81 75 82 69 63 61 60 59 72 62 46 39 36 32 40 47 39 54 55 33 138 118 99 96 92 84 102 84 75 65 46 67 64 52 32 49 49 56 82 68 61 84 67 47 61 42 44 44 43 37 40 38 38 38 36 58 56 55 49 43 38 36 41 38 38 31 30 30 26 28 22 27 23 21 22 24 25 23 22 22 19 17 17 21 15 17 14 14 16 14 16 12 12 11 10 8 7 6 9 3 2 4 5 3 8 7 6 6 7 16 7 5 4 6 6 4 7 4 4 7 3 2 2 -9999 -9999 -9999 -9999 -9999 -9999 -9999 -9999 -9999 -9999 -9999 -9999 -9999 -9999 -9999 -9999 -9999 -9999 -9999 -9999 -9999 -9999 -9999 -9999 -9999
-9999 91 90 80 79 77 70 72 67 101 76 75 78 72 58 43 37 43 66 67 53 51 85 73 48 59 111 117 144 195 225 120 77 52 54 27 37 40 67 61 67 75 79 87 69 71 85 77 41 52 50 50 51 58 35 54 44 58 59 53 61 62 59 44 51 40 49 39 45 33 33 29 29 28 27 22 21 22 26 32 27 26 28 22 22 20 23 19 18 19 17 14 21 16 19 13 12 10 9 9 7 8 5 3 6 4 3 6 5 4 9 9 11 4 7 13 10 12 7 11 4 5 5 3 3 2 3 -9999 -9999 -9999 -9999 -9999 -9999 -9999 -9999 -9999 -9999 -9999 -9999 -9999 -9999 -9999 -9999 -9999 -9999 -9999 -9999 -9999 -9999 -9999 -9999
-9999 195 130 117 84 85 80 120 84 131 99 93 112 60 65 41 59 75 73 38 42 36 38 62 55 48 47 69 70 124 102 76 78 77 57 34 77 72 72 72 73 78 106 87 70 52 87 71 48 60 52 58 56 50 45 51 60 63 63 73 79 72 68 64 61 55 47 49 48 40 36 34 33 32 32 30 29 26 29 25 31 26 24 24 22 21 21 20 22 17 16 15 17 18 17 16 16 10 11 9 8 11 9 9 10 5 7 8 8 6 7 8 12 8 8 10 10 8 13 9 9 7 5 9 8 5 4 1 2 -9999 -9999 -9999 -9999 -9999 -9999 -9999 -9999 -9999 -9999 -9999 -9999 -9999 -9999 -9999 -9999 -9999 -9999 -9999 -9999 -9999 -9999
-9999 308 265 197 108 94 175 137 188 152 119 103 150 60 58 61 70 64 50 43 58 71 66 56 58 65 55 68 59 90 79 148 214 233 91 42 34 58 50 73 75 96 98 75 73 64 88 62 56 64 71 56 63 53 57 74 70 79 96 95 81 76 58 70 69 53 58 51 44 41 36 37 38 34 29 31 29 28 29 30 28 28 28 29 26 25 24 21 22 18 21 20 19 22 21 21 11 16 20 13 15 11 9 7 6 7 7 6 6 10 10 9 9 11 13 12 8 8 15 9 7 8 4 7 5 4 2 1 1 1 2 -9999 -9999 -9999 -9999 -9999 -9999 -9999 -9999 -9999 -9999 -9999 -9999 -9999 -9999 -9999 -9999 -9999 -9999 -9999 -9999
-9999 297 420 395 208 145 186 252 173 157 125 153 202 101 87 74 48 48 50 62 61 69 89 79 92 80 84 121 73 82 103 101 101 115 211 161 44 30 37 52 70 95 98 79 83 66 66 60 52 52 61 51 67 61 72 71 79 100 106 88 87 91 83 86 70 68 58 55 52 46 43 45 38 44 39 37 30 30 26 31 27 30 26 26 29 28 30 23 23 27 27 26 29 22 18 18 18 16 21 14 14 13 10 8 9 9 9 8 7 11 8 9 9 9 9 9 9 12 9 7 9 6 8 5 10 3 3 3 2 4 4 3 -9999 -9999 -9999 -9999 -9999 -9999 -9999 -9999 -9999 -9999 -9999 -9999 -9999 -9999 -9999 -9999 -9999 -9999 -9999
-9999 426 502 593 376 290 288 203 200 156 234 244 263 119 110 104 67 64 67 64 55 67 80 89 100 167 143 131 96 113 101 101 101 101 101 200 197 36 31 36 82 88 103 90 78 67 59 55 63 65 66 57 65 73 59 80 90 102 117 106 102 101 97 75 72 52 69 66 58 54 60 46 49 46 41 37 32 31 28 35 30 29 26 26 35 35 35 25 35 31 29 25 30 23 22 22 22 21 20 27 13 11 9 10 8 12 12 12 7 11 9 12 11 11 10 11 12 14 6 8 9 12 9 9 4 4 3 7 7 4 3 1 -9999 -9999 -9999 -9999 -9999 -9999 -9999 -9999 -9999 -9999 -9999 -9999 -9999 -9999 -9999 -9999 -9999 -9999 -9999
-9999 417 581 590 340 254 242 212 217 162 307 262 268 108 135 114 64 91 84 97 86 75 85 108 123 257 210 144 221 159 432 156 101 101 101 101 158 132 82 55 73 94 96 103 64 72 85 75 75 111 111 71 68 109 88 101 73 113 105 101 111 107 104 91 94 61 78 74 64 59 60 60 55 48 47 37 35 34 46 41 33 37 33 35 34 38 33 30 29 31 31 27 26 33 27 25 24 19 22 23 14 14 13 13 17 22 14 12 10 11 12 12 11 10 20 17 13 17 9 8 8 8 9 6 6 4 12 4 2 7 2 2 -9999 -9999 -9999 -9999 -9999 -9999 -9999 -9999 -9999 -9999 -9999 -9999 -9999 -9999 -9999 -9999 -9999 -9999 -9999
-9999 214 271 448 443 373 282 280 264 322 318 330 163 234 141 138 64 73 93 101 139 130 130 339 153 254 350 413 504 145 101 101 101 101 101 101 101 166 108 88 42 87 99 91 85 88 103 130 91 152 94 63 89 107 144 158 101 96 111 111 93 88 102 97 106 71 89 80 72 63 67 64 61 56 54 42 34 37 45 42 40 39 35 47 53 37 42 35 36 32 33 31 29 37 28 37 22 26 23 19 19 22 15 22 22 16 15 14 10 8 11 15 10 11 11 11 18 16 9 10 11 8 4 7 4 4 10 5 5 2 3 2 2 -9999 -9999 -9999 -9999 -9999 -9999 -9999 -9999 -9999 -9999 -9999 -9999 -9999 -9999 -9999 -9999 -9999 -9999
-9999 227 303 503 417 267 249 228 485 428 350 347 306 252 176 94 79 97 104 214 350 439 393 309 183 374 604 403 173 101 101 101 123 101 101 101 101 132 102 105 82 81 84 82 109 109 189 214 197 118 75 59 97 187 171 182 123 154 115 103 90 102 107 95 88 88 86 87 86 75 74 65 61 56 42 43 37 41 46 36 32 41 37 41 41 45 44 44 36 37 33 36 33 34 32 31 26 24 36 20 22 27 22 26 21 23 20 21 15 16 11 16 12 14 13 16 17 12 11 9 10 7 8 5 4 3 4 4 2 3 3 3 4 -9999 -9999 -9999 -9999 -9999 -9999 -9999 -9999 -9999 -9999 -9999 -9999 -9999 -9999 -9999 -9999 -9999 -9999
-9999 306 288 407 361 310 401 283 480 460 339 309 359 309 250 201 85 80 142 403 233 459 520 422 287 461 710 296 328 101 101 136 251 492 137 101 229 101 123 115 85 80 86 96 80 100 116 144 152 145 120 67 113 192 189 178 156 144 112 87 103 109 98 92 103 80 89 87 84 83 74 68 66 53 41 40 52 51 41 51 40 52 56 44 47 44 41 40 39 43 35 41 38 39 40 39 31 28 34 27 32 32 29 28 31 25 24 18 20 12 15 12 12 15 18 12 12 11 17 9 5 6 5 4 1 3 2 3 4 3 7 5 -9999 -9999 -9999 -9999 -9999 -9999 -9999 -9999 -9999 -9999 -9999 -9999 -9999 -9999 -9999 -9999 -9999 -9999 -9999
-9999 412 468 493 382 357 321 416 569 403 461 359 384 291 239 187 93 99 239 228 367 661 785 489 488 853 471 238 302 101 140 172 294 530 147 107 308 101 154 85 86 101 91 120 101 78 88 108 120 166 132 73 117 83 160 159 148 187 127 89 197 122 198 184 123 126 95 87 87 79 86 83 80 49 54 53 40 35 56 47 56 53 55 56 47 59 46 45 43 46 43 44 41 39 40 36 37 37 46 27 30 32 25 31 26 23 24 21 14 18 20 16 14 14 15 16 13 10 6 6 6 6 4 3 2 3 3 2 3 4 4 2 4 -9999 -9999 -9999 -9999 -9999 -9999 -9999 -9999 -9999 -9999 -9999 -9999 -9999 -9999 -9999 -9999 -9999 -9999
-9999 415 602 613 588 474 424 421 592 444 483 385 390 312 189 138 101 99 176 227 454 618 737 733 681 847 545 335 296 101 101 163 362 319 282 209 180 169 113 189 199 115 100 153 139 107 122 118 117 184 128 123 93 119 100 143 153 107 100 159 213 155 199 237 134 165 190 127 92 81 74 67 67 74 91 49 57 56 52 51 48 59 59 59 56 55 59 49 60 45 48 45 47 38 40 47 39 35 41 29 33 34 39 33 28 31 29 20 17 17 19 16 24 15 19 12 15 13 10 6 8 5 3 4 3 1 1 2 1 5 3 3 -9999 -9999 -9999 -9999 -9999 -9999 -9999 -9999 -9999 -9999 -9999 -9999 -9999 -9999 -9999 -9999 -9999 -9999 -9999
-9999 476 724 691 676 561 480 390 560 583 528 469 286 195 163 123 113 130 133 173 327 896 995 1251 959 610 291 252 188 101 101 204 411 611 374 240 273 302 208 224 240 123 148 189 176 137 152 208 170 229 164 160 121 138 113 177 178 167 147 140 206 244 233 167 137 176 151 159 93 98 73 96 86 67 94 99 124 133 104 76 61 65 42 69 59 63 63 58 58 56 56 61 55 45 46 42 43 37 41 30 36 36 37 39 37 40 21 23 16 13 13 17 16 14 25 17 14 10 9 8 8 5 4 4 2 2 2 1 1 6 3 1 -9999 -9999 -9999 -9999 -9999 -9999 -9999 -9999 -9999 -9999 -9999 -9999 -9999 -9999 -9999 -9999 -9999 -9999 -9999
-9999 839 966 884 970 668 586 507 545 595 548 497 441 286 149 126 130 153 128 190 324 566 660 924 764 479 258 190 163 101 195 292 520 605 559 584 262 214 227 249 295 232 114 138 205 250 328 260 232 223 281 239 200 131 234 150 190 204 216 170 189 277 252 200 215 196 153 120 96 117 105 109 88 69 66 92 103 156 133 91 92 53 50 50 61 71 63 61 60 61 58 62 48 56 49 50 41 37 37 31 40 38 45 35 42 35 25 23 22 16 17 14 22 17 18 7 8 7 7 9 6 5 7 3 2 2 2 0 3 5 1 0 -9999 -9999 -9999 -9999 -9999 -9999 -9999 -9999 -9999 -9999 -9999 -9999 -9999 -9999 -9999 -9999 -9999 -9999 -9999
-9999 1257 1090 1217 868 758 720 583 665 559 784 947 529 340 159 172 161 156 163 171 209 304 460 481 465 341 367 183 112 101 102 256 398 551 646 412 285 299 218 246 305 333 183 203 243 279 292 343 394 308 304 332 277 210 307 197 268 354 435 405 293 298 225 207 229 228 125 116 168 170 167 109 76 85 83 88 89 127 133 77 91 61 72 78 54 78 79 68 68 68 68 57 56 60 57 54 46 42 39 34 37 44 42 46 32 25 25 25 24 17 18 21 20 19 11 10 14 8 12 11 4 6 8 3 2 3 3 1 2 2 5 -1 2 -9999 -9999 -9999 -9999 -9999 -9999 -9999 -9999 -9999 -9999 -9999 -9999 -9999 -9999 -9999 -9999 -9999 -9999
-9999 1239 1476 1373 1097 965 832 747 741 918 827 451 358 284 328 318 225 196 244 244 387 343 483 496 318 225 178 133 114 105 119 218 350 392 347 330 261 243 236 320 288 249 157 196 188 272 316 454 476 380 398 412 337 284 329 243 331 546 484 417 286 313 390 310 293 281 196 201 251 159 171 229 127 127 88 81 169 163 115 106 89 87 91 64 67 88 70 80 78 76 68 66 61 61 60 53 53 46 44 37 36 47 43 46 26 26 20 19 17 19 27 18 16 24 23 21 18 15 8 14 10 4 4 5 6 3 3 8 4 2 8 2 4 -9999 -9999 -9999 -9999 -9999 -9999 -9999 -9999 -9999 -9999 -9999 -9999 -9999 -9999 -9999 -9999 -9999 -9999
-9999 1170 1414 1572 1401 1231 1039 941 853 769 836 698 708 690 739 640 496 377 206 315 493 471 429 419 266 219 146 121 162 101 101 195 269 296 294 271 266 252 269 265 380 295 185 222 273 264 334 424 536 515 482 487 474 474 444 380 373 518 435 369 521 518 462 664 517 456 363 395 458 343 315 321 288 336 148 145 200 123 137 123 109 88 67 76 84 104 87 81 71 78 64 64 65 59 55 52 47 51 42 38 36 40 41 30 20 18 19 20 19 24 28 21 19 22 24 20 15 12 14 16 7 5 6 5 8 2 1 4 4 1 0 -2 4 2 -9999 -9999 -9999 -9999 -9999 -9999 -9999 -9999 -9999 -9999 -9999 -9999 -9999 -9999 -9999 -9999 -9999
-9999 1238 1570 1652 1468 1359 1289 964 800 700 782 663 594 622 644 430 308 253 314 329 499 457 444 353 417 629 360 185 145 134 131 240 246 258 262 267 267 273 320 365 484 353 253 402 453 422 331 423 526 581 596 541 494 536 581 578 602 464 477 426 430 506 505 470 460 484 482 464 495 342 586 446 383 338 195 111 212 184 130 165 84 98 70 94 78 150 181 221 134 90 83 65 65 60 54 53 52 44 41 39 46 39 32 25 22 21 24 19 22 22 18 25 21 20 29 20 20 16 20 18 13 14 7 7 7 6 4 7 3 2 2 2 0 -1 -9999 -9999 -9999 -9999 -9999 -9999 -9999 -9999 -9999 -9999 -9999 -9999 -9999 -9999 -9999 -9999 -9999
888 1127 1392 1510 1672 1210 1136 997 830 709 542 445 417 336 371 309 246 253 400 488 606 502 626 636 483 534 422 437 323 191 108 186 264 269 268 271 275 283 381 444 404 462 372 570 618 549 436 613 639 566 625 644 616 657 620 646 600 508 538 505 513 492 495 494 511 576 530 467 477 440 433 385 443 424 226 304 303 200 141 95 107 105 104 145 131 88 150 240 226 182 91 62 61 62 53 49 45 41 40 41 39 43 26 23 25 30 24 22 18 20 22 26 27 25 25 25 22 20 20 16 19 13 8 9 8 8 6 9 4 8 3 7 -1 1 -9999 -9999 -9999 -9999 -9999 -9999 -9999 -9999 -9999 -9999 -9999 -9999 -9999 -9999 -9999 -9999 -9999
855 932 1263 1377 1585 1452 1372 1184 1107 859 681 541 477 473 427 431 490 509 604 650 624 478 527 498 523 287 386 399 369 311 301 296 122 125 142 222 278 321 405 467 493 568 606 613 646 652 578 660 652 593 649 634 729 697 686 603 568 582 589 547 582 554 542 502 516 504 481 554 464 443 478 521 522 533 311 458 361 240 147 114 134 98 122 171 152 110 138 152 98 124 189 119 62 55 51 48 46 43 41 45 40 42 28 26 24 25 23 23 25 24 25 29 24 27 27 27 25 25 18 20 20 16 11 12 9 10 9 8 8 10 3 3 6 1 -9999 -9999 -9999 -9999 -9999 -9999 -9999 -9999 -9999 -9999 -9999 -9999 -9999 -9999 -9999 -9999 -9999
950 981 1031 1326 1465 1714 1398 1108 975 946 982 695 641 564 514 511 503 561 435 540 434 437 348 361 283 424 280 268 321 339 281 290 216 216 262 154 214 333 356 403 559 601 630 666 697 695 679 764 667 638 703 732 790 725 726 644 650 642 627 563 614 582 563 525 504 502 454 465 425 418 410 363 379 278 578 599 404 203 179 123 193 177 143 274 175 142 176 137 134 129 105 220 149 59 53 52 44 43 38 42 46 31 25 25 25 22 23 28 25 25 30 27 32 31 29 37 34 25 25 27 22 15 14 10 17 15 16 11 9 8 4 3 6 6 -9999 -9999 -9999 -9999 -9999 -9999 -9999 -9999 -9999 -9999 -9999 -9999 -9999 -9999 -9999 -9999 -9999
1068 1092 1116 1219 1455 1250 1220 1059 989 916 860 844 855 763 683 569 709 589 557 388 366 343 262 252 244 322 265 310 255 242 302 274 216 239 226 197 335 359 506 461 482 581 612 686 714 723 713 753 723 665 713 803 883 863 854 813 765 750 719 691 684 602 581 548 498 468 435 413 379 381 302 426 450 428 353 522 418 318 283 202 242 306 243 304 286 168 183 160 180 122 147 238 95 143 58 66 42 46 37 36 45 33 26 28 28 25 32 28 34 29 29 36 38 35 37 36 33 35 29 51 23 18 25 18 21 14 11 11 14 7 5 3 3 5 -9999 -9999 -9999 -9999 -9999 -9999 -9999 -9999 -9999 -9999 -9999 -9999 -9999 -9999 -9999 -9999 -9999
1168 1188 1299 1492 1424 1204 1178 1107 1014 980 869 814 792 806 685 798 702 637 467 377 347 312 279 267 242 310 253 221 248 216 252 252 216 297 306 357 382 430 534 565 597 639 676 656 682 751 773 764 804 783 923 1023 1265 1307 1193 1017 922 861 844 803 765 663 633 565 486 467 475 389 357 328 319 382 431 442 425 541 575 418 353 284 305 360 385 352 346 326 286 275 187 146 205 281 147 73 57 46 48 40 36 32 30 29 29 31 31 31 30 34 40 35 33 38 38 37 40 40 32 37 75 85 32 23 28 28 26 20 23 19 19 16 14 7 5 3 0 -9999 -9999 -9999 -9999 -9999 -9999 -9999 -9999 -9999 -9999 -9999 -9999 -9999 -9999 -9999 -9999
1250 1320 1651 1618 1453 1270 1203 1107 1034 1096 842 804 781 795 889 762 648 581 523 442 352 312 295 292 324 250 216 216 216 216 216 216 250 279 304 333 378 455 508 619 609 663 647 703 701 749 735 834 925 1005 1097 1262 1605 1714 1530 1178 1192 998 992 895 792 705 697 653 523 469 499 405 382 357 370 388 433 442 516 642 460 382 345 273 363 490 488 401 358 324 291 312 230 258 171 133 77 80 54 56 43 38 36 31 33 30 30 35 27 31 30 39 42 37 42 45 45 46 53 47 44 48 102 115 115 34 31 29 25 25 29 25 28 25 22 10 4 6 6 -9999 -9999 -9999 -9999 -9999 -9999 -9999 -9999 -9999 -9999 -9999 -9999 -9999 -9999 -9999 -9999
1633 1663 1700 1753 1474 1324 1291 1198 1114 1121 1027 800 796 835 828 734 762 655 509 393 381 425 383 382 275 231 233 216 216 216 216 216 239 250 281 320 395 439 482 619 649 613 749 756 727 765 807 874 1096 1290 1236 1530 1614 1611 1684 1599 1411 1259 1072 953 801 754 687 631 730 663 603 467 408 441 386 383 414 471 611 535 461 332 323 355 433 513 556 540 608 580 366 360 316 208 129 106 133 59 69 83 80 42 32 30 34 34 30 28 34 38 34 39 44 46 49 54 53 58 60 58 53 65 214 353 122 43 41 36 41 37 37 33 40 29 24 17 9 7 1 0 -9999 -9999 -9999 -9999 -9999 -9999 -9999 -9999 -9999 -9999 -9999 -9999 -9999 -9999 -9999
2154 2198 2054 1831 1646 1499 1451 1272 1164 1042 962 871 955 935 799 765 718 447 397 382 341 308 306 305 266 238 244 228 216 216 237 216 230 283 263 335 366 468 482 588 622 657 629 788 816 868 922 981 1362 1332 1737 1822 1562 1688 2046 1856 1701 1404 1230 1080 873 781 800 635 905 801 570 509 497 478 390 407 423 452 578 621 476 378 360 385 519 654 744 1023 1102 854 585 446 370 198 137 100 118 93 85 89 81 60 35 34 31 31 30 29 36 34 40 49 49 52 49 63 59 70 79 68 90 212 312 374 181 89 45 50 56 53 46 48 51 44 42 19 13 6 5 6 3 -9999 -9999 -9999 -9999 0 -9999 -9999 -9999 -9999 -9999 -9999 -9999 -9999 -9999
2237 2516 2637 2103 1894 1689 1576 1365 1192 1056 999 1133 1200 836 807 690 592 469 627 475 296 282 275 261 271 269 248 216 216 243 239 216 242 234 278 328 384 397 464 532 580 588 594 754 902 939 956 1033 1425 1406 1417 1707 1560 1642 2065 1765 1763 1424 1265 1254 916 924 1037 907 916 766 775 793 766 654 526 485 515 489 549 556 478 381 367 412 587 793 945 1289 1509 1066 651 513 428 294 262 169 89 92 97 104 68 59 41 33 36 37 33 41 43 37 42 49 53 58 56 66 72 86 91 112 141 107 186 394 125 70 68 83 92 74 55 70 67 61 51 34 15 8 4 4 0 -9999 -9999 -9999 -9999 2 -9999 -9999 -9999 -9999 -9999 -9999 -9999 -9999 -9999
2093 2297 2501 2493 2356 1908 1697 1366 1180 1022 924 872 926 817 678 657 762 630 414 327 307 296 273 267 266 260 216 233 216 216 316 272 235 254 260 317 364 440 502 599 608 588 611 810 872 869 984 1097 1234 1430 1832 1994 1569 1605 1840 1749 1716 1525 1450 1354 1308 978 910 1109 1071 903 788 1366 1415 1041 690 732 892 702 604 627 487 455 399 409 527 687 939 1220 1274 1180 671 568 447 312 251 154 166 87 79 81 80 45 53 45 54 55 46 52 59 52 81 68 60 63 66 76 84 97 117 122 172 192 319 394 140 89 67 97 123 87 80 87 88 72 55 35 21 21 15 5 5 0 -9999 -9999 -9999 0 1 -9999 -9999 -9999 -9999 -9999 -9999 -9999 -9999
2062 2405 2435 2750 2636 1971 1696 1343 1153 1007 877 901 845 685 619 534 496 445 390 333 315 295 280 272 266 256 257 254 225 227 372 405 365 292 358 328 332 431 533 543 510 535 658 725 821 889 948 1014 1149 1284 1465 1464 1397 1498 1581 1601 1545 1465 1353 1290 1468 1180 1187 1261 1246 1274 1203 1319 1214 1012 974 780 1017 795 932 630 619 581 430 426 572 614 689 906 945 800 619 564 464 299 235 156 164 190 60 46 54 48 80 70 43 45 55 71 62 54 58 89 68 68 73 78 85 101 124 141 181 201 212 156 141 146 151 181 181 166 173 165 153 125 123 57 58 58 35 9 5 5 2 -2 1 1 -1 -9999 -9999 -9999 -9999 -9999 -9999 -9999 -9999
1993 1912 2161 2722 2777 2005 1566 1412 1155 981 844 769 681 615 553 492 449 395 378 346 327 304 288 281 268 253 265 269 268 259 258 298 467 339 445 529 393 444 474 490 497 539 601 684 824 842 937 1034 1066 1180 1192 1253 1311 1337 1320 1336 1337 1498 1205 1172 1237 1377 1308 1598 1808 1671 1622 1609 1496 1545 1384 947 1178 1073 920 843 733 725 483 468 542 571 601 637 666 677 563 507 455 327 294 165 94 101 57 53 54 59 86 67 44 55 57 57 57 69 56 106 103 81 96 100 98 128 152 181 207 235 292 257 277 250 277 275 248 292 303 219 214 179 179 120 130 40 32 38 18 7 6 6 1 3 6 4 -9999 -9999 -9999 -9999 -9999 -9999 -9999
1531 1637 1906 2101 2199 1766 1406 1273 1138 963 824 720 677 616 551 505 456 415 394 361 336 311 299 282 269 268 267 271 270 272 271 233 283 320 335 325 378 427 500 468 526 529 587 588 642 804 811 924 1056 1138 1186 1229 1192 1243 1227 1237 1220 1192 1160 1171 1189 1186 1247 1432 1838 1862 1787 1680 1592 1421 1436 1343 1236 1064 946 735 796 833 595 533 569 603 586 561 613 577 515 460 410 316 201 222 278 202 78 78 87 88 58 45 42 57 62 62 70 85 91 78 103 97 115 173 157 232 203 281 283 396 401 434 451 443 391 394 314 334 256 299 247 230 222 112 182 152 145 113 51 17 9 6 8 5 2 3 1 -9999 -9999 -9999 -9999 -9999 -9999
1333 1365 1475 1733 1657 1417 1287 1166 999 882 786 682 639 569 525 479 441 408 389 363 340 319 294 282 267 271 274 277 283 287 297 270 288 311 332 355 387 410 477 491 617 596 753 702 701 716 794 887 1022 1072 1123 1139 1167 1250 1192 1245 1228 1207 1167 1181 1204 1270 1266 1377 1668 1717 1715 1543 1580 1463 1264 1381 1282 1220 854 849 650 689 626 542 543 556 559 545 519 471 447 376 313 287 271 397 419 207 278 116 79 103 67 68 45 47 69 74 88 120 116 137 128 150 152 181 284 329 351 439 426 546 525 571 602 673 546 512 426 366 327 331 314 311 242 265 233 160 131 123 64 23 8 10 4 7 3 3 2 3 1 4 4 -9999 -9999
1208 1260 1366 1367 1405 1276 1153 1087 928 818 731 653 613 543 495 457 423 395 381 359 339 320 302 300 268 279 286 283 288 294 293 221 293 330 360 367 392 453 469 549 599 699 752 708 741 756 778 862 961 966 1061 1066 1100 1122 1121 1168 1230 1256 1262 1096 1217 1269 1332 1369 1413 1540 1771 1423 1409 1572 1205 1195 975 951 833 816 695 571 494 501 482 478 470 561 484 435 356 365 273 321 322 322 380 253 396 118 125 124 126 135 73 53 72 89 97 108 136 139 157 207 279 262 279 426 435 561 600 628 706 863 933 861 722 610 543 443 368 348 356 346 273 292 249 190 180 126 70 25 12 9 6 7 5 5 6 7 7 6 4 2 -9999
1085 1136 1151 1172 1215 1157 1045 956 880 771 689 623 597 542 487 451 419 391 379 358 340 326 308 301 268 285 283 286 294 298 301 278 280 316 330 340 394 614 783 701 763 912 724 732 689 680 705 775 833 873 926 930 974 1002 1028 1050 1013 1049 1034 1207 1316 1250 1325 1527 1693 1525 1608 1450 1354 1272 1111 1096 999 896 855 804 820 641 490 472 465 467 466 449 371 363 383 345 338 330 319 329 357 406 249 221 267 218 219 162 156 95 82 128 176 135 147 166 209 260 328 313 362 352 486 578 697 733 803 931 1042 974 820 721 624 508 475 412 369 363 337 313 281 245 217 160 53 67 30 11 15 13 10 7 7 8 10 6 6 6 -9999
1054 1077 1085 1106 1137 1098 999 960 851 748 667 615 583 527 485 462 448 426 378 358 345 333 328 317 304 317 308 300 320 457 269 268 263 251 340 321 511 728 786 740 709 688 657 673 668 664 676 718 751 782 836 859 893 901 903 903 909 971 935 1144 1128 1129 1249 1274 1364 1400 1399 1345 1276 1150 1036 1081 1054 889 837 816 788 753 533 470 558 473 531 401 517 456 514 365 368 345 326 335 370 231 279 213 262 322 271 239 196 98 67 191 272 207 159 177 228 273 335 380 417 447 489 672 895 1015 1040 1210 1400 1295 1005 862 761 631 523 447 424 397 356 311 269 222 210 155 113 67 38 21 19 17 12 11 13 7 14 7 8 6 -9999
921 961 950 968 1005 963 915 883 843 725 642 578 565 526 489 461 468 427 391 378 363 366 305 336 336 323 314 373 432 505 272 393 603 381 556 608 595 798 830 745 689 673 658 661 649 669 679 711 747 763 781 807 832 850 850 831 837 804 869 906 922 916 994 1136 1129 1528 1555 1178 1104 1062 974 1040 945 922 878 796 660 633 644 518 507 519 482 456 467 527 467 405 400 375 351 341 389 237 188 206 263 348 457 292 283 215 283 97 137 333 274 255 283 333 382 439 453 581 606 774 1001 1166 1264 1594 1772 1652 1373 1165 892 710 557 459 422 405 369 329 308 212 201 156 127 75 44 26 17 18 15 11 9 7 14 12 5 9 -9999
836 829 863 863 878 855 837 826 888 784 683 573 551 511 483 454 434 405 409 397 357 336 347 356 407 368 480 341 333 366 524 732 822 697 689 751 723 732 658 692 650 647 643 638 638 657 669 788 733 747 759 762 782 785 784 786 771 743 792 776 842 854 967 1091 1078 1430 1598 1163 1012 988 906 929 915 896 904 827 652 731 762 694 648 600 484 529 668 735 517 430 512 438 384 484 289 225 226 223 211 288 334 542 329 421 338 124 326 337 325 304 300 391 427 495 531 603 739 901 1209 1371 1535 1967 2254 2221 1718 1518 966 673 604 488 438 409 375 376 266 215 210 197 167 108 48 28 25 19 15 15 10 16 9 13 9 12 -9999
744 744 769 772 770 771 792 874 1189 856 632 609 603 556 489 452 434 407 405 367 375 359 359 378 426 509 410 526 563 572 669 794 688 561 609 778 705 725 652 655 649 654 654 655 648 661 669 721 722 736 742 750 761 762 769 769 740 722 719 724 734 793 873 899 945 1099 1199 1019 952 868 907 889 894 810 804 870 831 838 884 760 673 638 614 894 646 928 686 744 681 586 572 363 283 247 222 238 239 253 300 437 505 598 458 288 165 331 481 401 593 630 561 533 574 625 833 1140 1230 1342 1544 2200 2796 2849 2165 1456 1118 832 619 522 453 448 433 353 245 215 210 196 208 82 52 31 34 23 18 15 14 13 14 17 14 11 -9999
673 688 704 698 696 706 950 950 1129 904 748 671 625 616 576 452 439 421 406 379 381 403 400 397 577 555 574 524 634 766 977 744 709 705 541 727 788 665 655 650 638 638 659 653 657 658 674 770 727 717 718 731 736 729 735 730 714 701 694 694 697 692 731 721 826 882 955 881 856 820 854 856 848 878 855 938 1066 1084 1035 887 826 737 590 749 1061 900 680 811 1042 744 682 418 292 268 240 251 266 283 267 423 548 400 360 424 234 251 395 435 436 505 579 575 632 662 823 1086 1200 1358 1511 2222 2762 2874 2122 1467 1200 781 626 533 461 466 437 397 330 217 137 96 62 44 63 65 62 40 28 21 17 16 24 12 11 13 -9999
615 658 671 666 667 670 847 857 992 899 742 644 634 745 598 451 433 420 422 403 399 488 535 509 460 836 685 738 893 928 882 690 678 681 733 669 638 638 638 650 646 654 654 652 638 664 665 674 763 700 700 715 714 718 710 702 694 688 686 680 684 681 689 699 750 804 811 788 804 798 818 861 854 878 889 1074 1370 1430 1197 1060 1133 934 707 864 1042 1008 759 1065 761 565 506 580 319 294 244 233 238 365 368 391 497 458 375 259 378 330 243 257 311 394 516 605 693 644 789 1025 1138 1310 1523 1928 2337 2338 1906 1275 1150 753 616 517 561 536 483 339 292 251 181 114 70 102 66 96 58 75 47 21 22 20 20 18 16 15 -9999
590 601 608 616 719 587 614 739 861 882 852 714 637 611 537 451 434 427 434 480 509 470 648 585 714 879 1034 870 856 819 747 798 734 704 649 653 652 638 734 638 638 650 638 659 662 666 640 831 687 687 690 699 700 701 694 697 693 685 685 677 673 672 676 680 695 713 759 755 735 724 858 1067 827 825 901 1148 1550 1527 1306 1151 1212 1131 882 1024 1083 1149 1189 965 704 821 589 448 415 281 243 238 266 326 353 389 461 479 437 552 381 255 327 287 496 612 508 637 796 946 861 942 1147 1421 1597 2055 1912 1722 1547 1371 992 743 623 539 547 511 463 381 294 222 152 217 198 192 217 169 170 159 115 33 26 18 25 18 14 18 -9999
544 552 562 565 572 576 583 606 764 716 699 615 684 664 463 452 448 480 509 582 613 781 511 572 541 836 901 814 812 810 956 749 915 778 675 665 667 675 664 642 638 638 653 684 665 660 668 671 686 675 680 684 688 690 688 687 684 682 676 675 672 668 666 666 667 669 682 700 692 682 746 1097 840 813 893 1149 1524 1599 1372 1277 1247 1372 954 1133 1045 1274 1312 1273 1036 862 648 471 428 304 248 250 265 268 331 342 385 490 408 317 291 470 629 644 546 478 603 652 741 823 947 1025 1064 1232 1441 1699 1918 1604 1319 976 845 711 606 536 491 492 450 383 340 237 310 248 259 237 206 173 159 157 41 43 35 66 47 23 21 18 -9999
517 537 533 615 643 602 584 597 591 617 696 651 546 500 488 564 537 657 629 762 753 532 655 901 865 834 936 818 916 990 1079 977 960 732 722 681 688 683 645 659 638 650 798 952 816 692 717 844 665 668 676 674 676 676 685 680 681 677 673 674 668 668 668 665 666 665 679 682 678 682 685 699 785 779 819 961 1186 1210 1177 1178 1161 1205 1467 1272 1322 1441 1234 1079 911 790 681 619 445 322 302 288 290 323 478 462 415 401 439 331 290 282 298 343 377 638 502 542 696 722 841 982 1099 1146 1223 1460 1439 1306 1107 1020 906 785 682 593 522 480 430 343 346 284 243 230 255 236 191 161 149 78 82 89 38 32 73 32 32 24 -9999
521 522 591 651 619 619 676 654 647 795 833 752 666 539 718 761 743 779 807 645 490 762 770 874 881 879 903 951 1053 1110 1141 1161 964 804 868 722 691 657 657 649 651 646 866 871 1038 837 784 892 717 668 669 671 674 671 673 669 672 670 672 671 667 667 664 664 664 664 667 671 672 673 674 682 687 706 762 837 863 1085 1150 1338 1352 1355 1395 1303 1440 1328 1259 1056 894 762 708 660 396 323 316 399 425 445 530 601 532 481 469 401 382 312 350 349 377 382 468 574 637 652 745 862 1002 1046 1128 1137 1194 1008 869 741 794 773 675 566 509 440 414 358 303 274 265 238 234 196 153 140 124 135 129 28 28 22 56 60 49 30 -9999
665 586 600 580 633 645 671 682 790 873 885 885 784 684 790 797 825 820 871 579 528 887 903 860 918 891 914 979 999 1016 1107 1152 1023 754 814 777 704 668 676 665 638 676 1016 1100 1088 1073 951 891 666 664 664 662 663 664 661 661 661 668 666 668 662 663 662 665 666 664 665 665 666 666 669 676 682 696 701 872 1056 1377 1281 1163 1133 1131 1282 1112 957 1186 1034 928 747 742 631 634 647 528 377 551 620 658 694 870 824 642 640 539 474 382 336 385 450 448 433 558 600 630 701 820 922 993 1091 1015 1079 936 837 724 696 627 564 538 477 421 395 356 295 247 220 222 191 170 155 138 137 146 121 31 44 85 59 85 74 44 -9999
560 603 670 668 709 836 721 737 814 859 946 983 941 894 957 954 946 837 750 670 588 636 842 893 928 988 957 971 987 1149 1096 989 842 862 790 860 788 742 712 666 658 664 895 931 891 792 729 688 674 669 667 659 662 664 663 664 662 664 663 660 662 662 661 666 664 663 667 667 663 666 666 671 683 714 718 741 913 994 1135 1188 1025 890 871 826 761 915 982 873 686 623 607 515 571 647 614 545 656 710 766 880 855 854 819 649 511 383 348 420 570 515 569 549 615 644 641 717 787 820 875 893 942 821 678 645 639 564 515 492 453 403 379 326 280 237 206 191 190 167 151 137 130 126 106 34 43 157 84 160 55 37 -9999
643 675 770 918 1034 1048 985 879 1038 950 1123 984 908 980 1013 1185 1041 996 902 899 623 917 987 986 935 954 955 953 987 1128 1029 944 973 934 918 912 878 857 715 707 689 777 939 964 945 973 774 801 681 671 666 669 665 663 661 663 662 660 663 659 662 661 665 664 667 663 667 665 669 667 668 668 694 738 740 788 817 884 897 939 1045 1000 850 696 714 820 808 806 617 602 542 565 407 654 659 716 653 840 896 935 841 892 875 722 487 477 423 452 433 646 726 573 646 576 610 644 684 686 804 845 771 729 622 538 534 517 525 565 472 383 356 316 262 223 195 182 192 165 147 125 119 62 42 77 65 67 72 201 70 53 -9999
757 835 910 1066 1008 1031 1041 1058 1181 1059 1096 984 950 1014 1057 1167 1010 997 985 982 735 922 930 983 1009 949 1026 1112 986 1022 1041 1020 1011 1125 1202 1211 988 838 808 809 830 959 921 892 1009 948 879 736 713 685 671 667 666 666 668 719 788 756 668 662 663 666 668 665 667 666 669 669 665 667 666 669 683 750 760 777 843 839 864 1016 819 876 890 802 695 649 627 678 549 556 484 430 548 615 704 759 913 905 1079 1006 1019 950 894 854 710 568 463 510 449 566 668 621 609 585 577 578 581 626 684 859 713 703 601 552 555 553 668 681 463 314 270 313 326 233 172 160 146 145 124 114 104 62 76 87 88 90 109 93 96 63 -9999
847 1103 1076 1029 1061 1177 1226 1156 1166 1254 1075 1105 1069 1011 1063 1079 985 992 971 978 903 1041 1007 1042 1041 1051 1092 1113 1084 1089 1112 1114 1122 1184 1340 1307 1133 941 807 886 1108 1113 1086 1046 1060 882 746 747 720 687 672 669 671 666 669 757 971 752 721 666 692 689 670 672 667 671 670 669 668 667 674 681 722 811 825 888 867 897 885 955 911 655 660 806 657 539 538 522 518 503 429 497 567 621 717 883 1048 1158 1363 1266 1160 1036 895 853 853 584 528 605 524 596 646 832 613 599 636 582 580 586 594 628 753 703 641 627 658 669 530 389 253 219 227 257 303 179 153 149 130 125 117 111 94 60 98 114 127 258 303 113 158 96 -9999
985 1061 1028 1020 1020 1050 1234 1166 1248 1129 1283 1230 1111 1089 1100 1085 1045 1038 827 836 771 977 1001 1035 1041 1095 1118 1181 1141 1198 1119 1100 1110 1221 1372 1326 1311 1056 916 977 1181 1131 1145 1145 1115 808 779 731 716 681 672 674 670 669 676 681 727 1065 914 811 849 853 678 684 676 669 671 671 676 671 697 740 872 953 1057 1043 952 1042 939 736 699 669 627 573 548 516 523 496 496 469 523 525 558 561 619 842 1092 1283 1595 1439 1297 1007 967 885 862 713 674 674 672 680 711 963 709 736 646 594 589 586 606 631 747 710 764 663 800 713 529 328 273 337 233 198 144 138 126 127 165 156 109 131 72 113 131 130 219 218 94 86 57 53 -9999
958 1008 995 1032 1062 1020 1160 1074 1159 1111 1165 1192 1143 1109 1124 1084 1122 1077 901 958 827 957 913 1007 1057 1136 1167 1375 1327 1284 1244 1299 1198 1352 1380 1380 1393 1380 1260 1299 1334 1251 1330 1264 1144 874 914 868 752 697 697 674 674 679 692 759 836 888 911 899 887 908 896 701 694 692 681 677 686 704 737 784 1017 1112 1136 1198 1433 1079 805 1113 987 646 642 608 540 507 505 515 529 543 555 578 567 569 595 800 1198 1235 1326 1605 1260 1014 1003 860 842 784 739 731 742 802 761 1061 820 852 736 622 592 592 619 660 774 824 894 628 529 518 506 357 256 268 231 408 342 196 314 155 143 104 104 103 109 106 111 154 186 186 134 84 66 71 -9999
926 977 1000 1028 992 999 1044 1021 1128 1121 1129 1048 1082 1186 1181 1116 1033 1139 1041 982 836 921 929 1115 1168 1301 1299 1522 1505 1512 1588 1448 1252 1233 1351 1299 1371 1299 1313 1409 1167 1146 1249 1070 1155 969 1029 1018 819 741 724 723 727 730 772 814 886 980 973 963 864 805 753 748 760 732 705 685 725 746 785 878 1063 1131 1074 1228 1159 1027 809 737 759 631 794 644 597 537 547 576 593 596 590 603 580 640 613 730 903 1059 1226 1363 1295 1017 951 841 825 840 924 911 975 933 934 1129 1120 1193 1161 845 709 490 606 604 777 788 594 448 398 371 362 317 322 280 273 259 410 176 307 279 306 192 199 130 120 111 123 174 131 97 104 149 102 81 -9999
852 910 942 1013 1043 1017 1019 1135 1133 1082 1121 1114 1025 999 1017 1025 968 1127 1047 977 872 966 1030 1169 1190 1422 1531 1612 1670 1703 1737 1463 1408 1302 1274 1305 1344 1344 1368 1293 1207 1169 1124 1070 983 1108 1220 1227 1111 804 748 782 823 831 842 955 970 1102 1080 999 865 811 786 790 780 774 718 753 772 784 885 973 1134 1091 1061 1075 1129 856 705 713 664 649 1180 673 588 526 571 578 684 713 714 665 738 731 638 781 1075 1387 1345 910 1213 1061 867 730 714 686 858 977 1016 1039 970 966 985 1102 1185 1239 837 592 463 424 552 778 689 584 437 543 395 481 476 491 510 482 339 243 215 330 320 509 245 260 197 179 195 212 122 108 120 154 109 81 -9999
787 866 878 981 980 1016 981 1053 1058 1046 1083 1046 921 934 1060 994 980 1042 1100 1057 925 1031 1099 1212 1248 1508 1644 1829 1645 1683 1772 1590 1462 1464 1497 1483 1540 1405 1474 1470 1266 1223 1146 1070 1042 1067 1161 1196 1152 914 802 847 892 988 1043 1057 1039 1155 1140 1067 884 860 821 811 803 773 730 807 822 931 924 1180 1204 1248 989 931 854 752 714 682 672 658 619 610 592 585 586 637 908 1142 867 884 847 840 873 798 1083 1074 1001 1135 777 1013 752 749 613 580 724 848 822 857 823 840 838 907 939 944 857 688 445 509 439 502 530 668 804 911 711 536 616 592 665 540 513 396 257 302 293 552 254 184 222 299 186 207 158 160 205 188 149 101 -9999
749 796 799 819 801 990 996 1041 997 1046 1034 1054 899 840 852 939 991 1116 1217 1221 1130 1172 1261 1382 1351 1518 1612 1590 1522 1528 1586 1792 1675 1596 1536 1898 1601 1456 1835 1385 1257 1220 1154 1079 1060 1116 1348 1315 1217 932 814 866 921 1041 1087 1276 1426 1328 1321 1131 1010 870 877 829 838 863 797 875 909 973 1205 1278 1302 1284 1182 1172 876 805 705 690 682 682 623 609 621 614 614 682 1022 1175 1250 1125 1013 1014 874 781 892 997 806 856 623 803 688 644 578 586 662 777 733 847 812 845 864 791 811 744 664 721 495 478 447 423 345 391 615 614 792 885 727 734 712 694 690 481 272 345 315 218 257 272 211 256 349 338 435 307 220 195 197 206 -9999
728 773 785 790 816 867 960 933 909 944 884 842 831 911 918 919 987 1140 1152 1227 1288 1264 1266 1295 1409 1506 1477 1424 1476 1545 1572 1829 1665 1603 1629 1770 1726 1626 1603 1370 1328 1257 1191 1150 1109 1101 1209 1299 1141 890 874 930 935 1134 1271 1660 1837 1615 1575 1394 1128 986 902 1052 939 928 928 995 1089 1205 1393 1473 1487 1310 1210 1109 1019 956 743 747 723 710 667 629 637 648 651 754 1158 1535 1490 1488 1352 1102 984 800 753 631 717 634 541 531 554 505 517 589 581 622 702 817 850 782 738 822 911 916 626 579 501 562 504 397 362 350 381 389 434 442 483 439 635 568 666 551 445 479 478 392 295 390 386 324 301 504 652 354 458 432 349 323 -9999
714 722 759 718 797 865 893 869 826 884 859 790 892 907 951 937 942 1009 877 837 931 1179 1302 1381 1238 1256 1601 1747 1569 1719 1691 1545 1544 1524 1592 1849 2005 1814 1507 1457 1333 1309 1257 1260 1204 1238 1232 1181 1210 1039 938 1009 1207 1290 1616 1566 2030 1969 1929 1444 1218 1111 955 1063 1154 1094 1135 1209 1317 1382 1484 1781 1790 1643 1610 1718 1338 1009 771 880 742 671 635 653 636 649 669 701 1071 1416 1432 1409 1482 1199 1072 825 662 633 565 532 517 514 496 475 518 491 503 569 632 736 831 686 555 595 607 704 707 745 686 696 499 402 387 304 302 311 327 319 391 398 417 502 629 681 530 592 508 430 522 454 454 412 427 487 1132 745 826 885 800 736 -9999
648 658 608 676 735 770 787 724 707 845 868 801 813 820 940 813 796 748 665 769 938 1059 1137 1335 1351 1329 1395 1452 1644 1673 1584 1448 1426 1511 1644 1841 1746 1733 1739 1560 1502 1524 1550 1409 1367 1375 1256 1283 1289 1209 1026 1092 1331 1374 1642 1871 2214 2168 1787 1445 1334 1121 1012 1220 1337 1489 1268 1347 1604 1491 1588 1830 1826 1931 1959 2103 1894 1277 825 832 668 668 634 644 660 642 667 677 957 1184 1357 1369 1464 1295 1163 805 667 603 495 482 479 478 495 486 475 463 496 621 668 735 745 703 582 548 538 507 570 647 694 654 561 565 464 364 325 383 430 344 284 270 361 309 339 374 392 500 620 755 892 832 629 566 552 538 656 962 1092 981 769 679 -9999
620 614 642 686 681 710 636 751 791 771 763 803 793 811 833 715 724 560 669 753 884 1002 1209 1307 1229 1168 1331 1341 1375 1350 1375 1346 1455 1499 1657 1703 1757 2120 1956 1749 1630 1677 1729 1666 1594 1495 1451 1518 1887 1328 1170 1324 1385 1497 1868 2079 2230 2097 1956 1698 1387 1246 1099 1252 1561 1766 1329 1587 1566 1471 1533 1755 1800 1913 1998 1796 1759 1188 828 823 745 662 635 648 656 660 671 685 756 831 938 1150 1206 1363 1308 1054 766 687 485 484 480 469 470 456 456 498 588 649 701 736 766 656 547 507 440 427 469 496 541 580 564 560 549 490 458 439 506 500 441 256 289 297 385 598 642 639 815 905 942 1059 1103 993 758 624 779 1185 1089 940 864 608 -9999
566 544 577 564 607 630 627 716 740 728 777 831 857 826 781 616 556 538 577 610 784 1125 1173 1195 1243 1292 1290 1347 1307 1269 1281 1336 1394 1560 1601 1820 1897 2153 2163 1979 1769 1903 1943 1802 1795 1833 1528 1709 1994 1416 1170 1333 1471 1524 1723 1997 2094 2188 2078 1825 1472 1280 1143 1190 1304 1481 1441 1657 1499 1572 1452 1502 1582 1827 1773 1709 1117 952 809 716 725 711 704 707 678 683 696 709 754 810 867 947 1019 1186 1357 1125 764 665 553 512 489 474 466 465 481 730 872 843 872 891 888 753 609 514 481 430 409 449 457 497 467 478 460 489 528 566 616 509 345 234 289 306 396 433 653 879 1039 991 759 953 1167 1230 1038 1214 1348 1064 936 840 757 648 -9999
532 497 444 525 573 540 561 636 681 754 625 594 610 572 564 636 561 433 531 597 796 1092 976 1179 1129 1191 1246 1290 1177 1219 1288 1305 1427 1494 1623 1800 1817 2156 2120 1939 1802 1945 2073 1877 1966 1898 1717 1642 1504 1425 1318 1392 1428 1456 1567 1748 1962 1974 2042 1819 1550 1417 1255 1405 1714 1810 1590 1565 1387 1331 1381 1426 1622 1332 1264 1136 907 795 734 706 699 691 696 690 689 715 724 764 804 867 991 1159 1201 1356 1304 1106 795 753 603 559 528 482 474 454 678 872 1240 1208 1162 1145 1135 903 777 585 533 438 448 433 447 443 457 455 441 457 494 492 528 478 311 260 299 252 311 556 852 879 798 681 995 1157 1093 1063 1161 1167 1167 1043 1012 876 719 635 -9999
514 454 390 473 463 453 552 657 755 762 573 547 555 590 495 574 526 424 563 617 832 991 1098 1122 1117 1124 1211 1239 1119 1135 1255 1305 1308 1410 1563 1709 1872 2034 2126 1995 2048 1923 1961 1763 2069 1981 1775 1701 1456 1420 1437 1385 1447 1453 1529 1578 1686 1852 1865 1820 1519 1451 1396 1526 1631 1712 1543 1404 1302 1230 1146 1260 1093 1084 1118 1042 844 755 721 698 693 682 692 695 711 750 771 829 882 1010 1200 1326 1529 1607 1382 1130 901 763 703 638 573 497 468 454 694 944 1315 1306 1281 1239 1273 1004 807 679 564 502 451 382 358 385 424 457 441 443 474 466 477 500 503 485 354 355 420 589 554 720 629 776 739 720 625 829 928 1128 894 743 992 868 775 631 -9999
454 440 406 425 352 461 531 532 563 549 498 503 490 449 492 489 401 441 609 767 853 1024 856 833 917 937 992 1049 1154 1241 1308 1494 1381 1443 1513 1659 1827 1971 1868 1895 1800 1867 1661 1550 1639 1980 1812 1642 1490 1419 1442 1434 1461 1481 1516 1566 1691 1894 1645 1568 1497 1481 1611 1609 1852 1647 1629 1449 1291 1124 1161 1039 1023 982 946 886 786 767 730 705 698 702 717 726 753 787 781 871 939 1042 1237 1465 1573 1707 1245 1072 899 800 723 647 583 511 470 457 558 906 1250 1542 1543 1514 1609 1275 1050 782 723 529 438 390 376 344 415 442 446 480 491 475 462 425 371 441 479 346 278 246 255 418 493 563 561 637 631 770 840 865 717 662 754 742 697 680 -9999
328 384 321 271 350 392 414 396 442 530 457 448 463 466 362 373 372 446 672 787 935 813 798 876 1158 1142 1210 1258 1191 1225 1319 1415 1475 1679 1769 1640 1679 1876 1641 1642 1717 1872 1709 1370 1490 1848 1863 1695 1598 1445 1442 1474 1521 1544 1524 1555 1766 2161 1666 1573 1565 1589 1720 1951 1957 1820 1547 1405 1281 1123 1124 1002 995 958 921 905 796 762 725 697 706 709 730 750 791 858 843 897 971 1117 1268 1552 1665 1639 1540 1158 909 812 772 667 593 521 478 456 513 751 1004 1433 1169 1221 1124 1014 1066 838 690 552 437 359 314 359 426 452 429 397 448 435 403 378 342 374 395 420 419 249 156 230 302 327 463 562 559 694 768 700 610 548 668 777 671 711 -9999
242 270 257 164 286 230 368 303 308 413 401 427 488 406 369 426 475 471 636 734 783 583 805 1081 1078 1042 1121 1137 1145 1221 1307 1384 1499 1691 1643 1267 1372 1495 1548 1605 1728 1629 1554 1329 1492 1494 1726 1660 1486 1479 1492 1511 1501 1490 1525 1672 1736 1884 1734 1612 1626 1744 1960 2100 2072 1748 1595 1436 1244 1164 1112 1030 967 955 899 889 828 781 709 719 735 748 812 863 851 989 1013 997 1031 1190 1416 1854 1833 1725 1539 1107 947 798 776 709 569 516 477 459 521 763 961 927 1003 1277 1308 837 945 753 610 618 458 379 290 358 435 398 378 382 402 424 423 381 368 355 352 392 404 393 247 183 223 301 381 425 641 728 666 647 539 458 625 717 610 490 -9999
185 145 176 144 286 187 227 199 223 306 319 362 447 499 424 370 452 470 440 447 516 754 878 971 980 1027 1073 1096 991 1207 1285 1363 1463 1442 1237 1297 1299 1402 1471 1650 1746 1532 1385 1361 1355 1489 1654 1615 1663 1423 1536 1493 1479 1486 1526 1494 1821 1663 1627 1632 1710 1893 2263 2211 2106 1905 1580 1350 1199 1150 1116 1008 944 925 902 886 843 799 753 740 757 782 873 1024 1042 1124 1247 1133 1059 1177 1321 1730 1849 1919 1380 994 854 793 753 679 517 496 455 446 462 726 813 1205 1135 1276 1108 892 669 645 508 507 414 323 306 242 271 296 272 345 361 388 412 418 355 352 372 409 404 385 239 204 303 315 464 486 497 641 680 580 627 336 467 549 430 438 -9999
211 147 154 201 186 162 136 134 183 187 190 187 416 430 433 314 433 435 441 495 788 835 955 969 839 832 990 884 1126 1163 1248 1358 1363 1417 1129 1176 1088 1173 1631 1583 1620 1298 1316 1133 1142 1315 1398 1371 1506 1372 1211 1306 1385 1515 1469 1492 1560 1645 1631 1638 1748 1988 2284 2269 2204 2046 1772 1476 1277 1159 1103 1033 949 911 881 859 833 808 782 798 801 834 868 1036 1153 1355 1445 1462 1150 1097 1266 1743 2054 1697 1321 976 847 732 699 669 514 467 451 427 521 549 760 853 852 831 940 790 576 582 499 462 427 325 278 219 287 239 248 236 263 325 336 343 367 364 455 484 471 301 177 240 248 295 459 566 698 797 749 713 585 603 506 289 330 336 -9999
221 121 182 185 126 118 128 142 141 150 159 168 245 247 292 300 341 428 771 786 838 891 728 707 718 765 803 868 1076 1150 1251 1239 1320 1129 996 843 1017 1292 1660 1400 1578 1351 1278 1041 1096 1409 1405 1237 1350 1123 1278 1507 1493 1407 1557 1560 1591 1622 1635 1653 1791 1890 2138 2208 2290 2233 1801 1494 1272 1120 1079 1023 970 934 910 891 879 852 861 869 863 888 982 1133 1458 1466 1281 1237 1263 1010 1232 1635 1796 1098 944 964 747 711 637 590 501 467 445 447 508 515 597 942 792 923 667 656 515 536 473 436 382 370 296 257 206 245 216 214 191 272 288 328 306 363 289 348 350 264 180 193 278 206 299 383 547 543 519 733 689 665 451 222 245 258 -9999
257 176 145 127 128 140 186 194 161 197 245 251 259 293 341 320 359 442 757 812 834 794 534 515 748 953 913 996 1022 1047 1152 1185 1208 1099 831 1017 1121 1557 1505 1339 1424 1116 1069 848 1194 1296 1306 1046 1168 1099 1187 1448 1572 1581 1639 1597 1644 1624 1663 1691 1782 1788 1933 2090 2104 2178 2047 1536 1266 1129 1083 1019 971 989 1014 992 987 944 898 890 875 918 1001 1237 1521 1498 1474 1187 1027 927 1155 1404 1449 1203 927 751 663 596 558 530 509 457 422 434 435 534 525 623 655 651 621 492 473 435 400 364 335 318 292 275 188 192 201 207 194 199 245 254 268 361 344 256 282 220 177 182 221 270 210 432 526 382 513 569 539 515 515 385 179 136 -9999
245 157 119 172 171 202 242 270 290 488 410 541 417 462 528 391 366 742 780 765 624 461 393 526 854 880 781 978 986 1070 1110 907 1049 619 767 1230 1219 1325 1312 1362 1286 869 865 836 1142 1050 932 843 1132 1048 959 1263 1553 1696 1773 1763 1747 1702 1720 1689 1699 1739 1817 2049 2099 2130 1962 1460 1290 1182 1124 1031 1042 1089 1100 1087 1107 1026 959 1000 959 952 1049 1243 1453 1364 1234 1109 1027 800 881 1011 1051 1111 950 635 581 547 526 493 479 457 421 405 415 388 427 514 455 462 502 461 378 387 318 334 263 222 233 201 202 206 177 206 160 178 164 180 227 341 255 191 256 117 181 218 195 221 286 232 362 358 440 496 404 386 540 359 315 165 -9999
176 135 197 182 252 416 455 459 446 286 487 409 542 558 549 595 590 586 634 451 450 372 474 639 577 605 656 727 805 1005 809 820 740 655 962 1214 1273 1150 1242 1433 1132 920 721 930 1065 854 683 987 1094 914 1128 1234 1588 1812 1833 1764 1903 1785 1687 1662 1688 1737 1883 2072 2234 2313 1620 1503 1345 1209 1168 1060 1128 1273 1365 1371 1391 1184 1133 1022 969 978 1036 1150 1256 1139 1129 1045 871 754 691 794 811 796 745 656 551 507 503 482 471 435 423 395 375 364 355 372 370 349 362 389 357 363 344 327 267 179 159 180 180 181 161 170 200 179 179 150 207 266 259 123 144 43 183 264 227 217 185 155 277 329 283 364 216 228 254 173 130 133 -9999
133 126 139 186 405 342 408 375 373 185 413 385 499 512 485 548 488 537 532 350 359 277 445 475 731 672 784 871 875 784 758 866 622 901 1061 1174 1175 1095 1160 1355 1040 928 678 824 1042 686 786 748 772 1071 1208 1486 1542 1616 1762 1805 1872 1832 1765 1710 1630 1760 1903 2126 2171 1988 1854 1608 1366 1228 1201 1131 1339 1457 1696 1669 1785 1527 1236 1064 974 948 1017 1058 1039 1018 917 985 821 735 661 655 631 630 610 558 518 492 480 464 458 430 410 392 376 362 331 338 335 331 322 345 329 287 266 247 214 200 155 170 161 180 145 176 152 160 156 164 179 198 235 161 97 26 78 124 128 137 139 86 164 173 128 153 121 72 58 39 27 35 -9999
121 184 297 303 350 350 345 375 353 188 239 456 488 498 458 506 470 548 550 325 291 264 447 594 581 620 730 730 842 844 761 784 468 998 915 1143 1028 1202 1092 1160 960 840 724 638 869 511 810 1033 1068 1195 1293 1372 1544 1605 1705 1715 1635 1633 1806 1655 1511 1723 1962 2312 2326 2173 2008 1658 1432 1294 1236 1186 1384 1594 2043 2497 2301 1750 1371 1142 1005 906 866 918 922 915 822 817 713 664 624 566 561 551 522 520 483 465 458 447 440 412 389 382 371 354 339 327 316 310 300 324 286 274 249 253 219 168 160 144 157 168 142 148 137 111 120 125 132 157 183 104 89 28 24 43 63 53 88 80 121 79 88 110 98 43 20 21 24 21 -9999
302 283 270 277 158 216 181 307 359 330 367 422 434 428 443 429 437 468 488 320 227 236 381 405 593 677 643 672 755 817 737 533 751 800 834 674 1149 1085 1118 1064 836 1010 857 481 798 528 548 605 679 1005 1167 1376 1498 1501 1579 1569 1429 1642 1648 1435 1514 1690 1976 2566 2464 2427 1959 1639 1397 1273 1239 1227 1337 1609 2038 2459 2264 1791 1391 1208 1048 916 833 821 806 788 765 729 702 691 615 535 538 522 494 497 464 452 448 443 441 452 406 373 366 358 345 337 332 263 308 263 280 243 241 229 202 174 154 146 157 146 138 138 112 125 116 93 78 81 95 50 26 30 33 20 58 63 55 34 45 20 38 38 129 32 19 16 16 28 -9999
129 144 168 146 231 135 166 212 183 230 278 388 365 391 389 402 412 428 406 406 271 243 252 547 515 548 479 405 700 433 662 405 736 612 753 950 790 793 1016 935 723 927 941 756 582 590 892 1087 943 1182 1371 1491 1285 1482 1472 1481 1345 1464 1476 1294 1401 1526 1800 2069 2030 1899 1704 1495 1330 1248 1220 1242 1346 1564 1906 2145 1969 1673 1462 1233 1047 892 853 829 799 738 763 729 684 647 600 550 497 487 470 464 446 426 424 440 425 425 398 373 364 352 342 331 321 312 297 297 262 232 242 218 208 198 180 171 151 140 110 128 90 99 110 97 73 78 94 27 22 20 21 94 17 19 30 42 21 19 16 14 25 63 41 15 18 23 -9999
69 120 53 51 81 178 126 149 227 192 258 126 174 325 279 273 351 308 388 376 422 193 416 502 513 348 339 463 512 360 306 455 721 710 455 612 562 887 748 955 730 682 854 886 481 514 856 1345 1215 1384 1200 1470 1223 1407 1352 1324 1202 1375 1353 1284 1346 1445 1626 1859 1811 1729 1609 1469 1306 1242 1211 1251 1331 1488 1642 1693 1675 1566 1366 1124 1027 1079 936 802 746 703 650 672 611 546 536 542 473 446 447 429 419 412 395 396 392 407 375 368 359 355 348 337 328 327 321 294 288 254 251 165 217 207 192 188 174 171 132 112 105 110 110 68 92 95 77 69 59 23 17 26 51 27 26 26 20 16 13 11 11 15 91 17 23 21 -9999
26 27 92 32 26 106 104 195 193 202 71 180 164 140 148 199 139 333 334 187 218 235 404 404 398 393 253 436 541 361 286 471 392 545 386 486 738 610 535 749 824 750 870 650 332 563 945 1182 1015 1157 1257 1311 1250 1320 1271 1241 1022 1177 1306 1201 1218 1204 1364 1421 1476 1471 1408 1368 1291 1301 1248 1277 1268 1330 1462 1465 1551 1460 1326 1328 1333 1071 1010 991 821 693 664 626 612 533 543 519 449 442 410 407 387 397 381 368 368 385 366 348 342 355 356 368 352 339 332 308 286 266 268 253 234 226 211 198 99 120 95 78 81 114 110 72 39 35 49 37 55 39 25 33 77 27 18 21 19 17 16 13 11 49 28 28 18 20 -9999
115 54 49 15 123 136 162 111 115 136 83 35 106 75 146 69 160 115 280 235 156 214 362 326 310 375 226 289 356 294 249 447 324 513 341 520 546 708 501 878 933 694 789 490 371 581 687 894 807 1240 1277 897 1260 1268 1424 1282 893 1075 1239 1250 1132 931 1146 1163 1247 1298 1315 1362 1358 1368 1370 1408 1282 1296 1379 1345 1147 1339 1258 1357 1222 1110 914 836 812 747 642 650 631 532 559 530 497 465 446 442 413 358 371 361 348 337 329 317 329 344 372 368 365 344 341 331 284 281 249 268 231 171 179 164 193 191 156 133 137 117 119 105 49 47 42 33 27 29 24 27 33 22 13 20 12 10 19 15 20 61 135 221 155 79 -9999
13 21 14 88 110 42 142 141 28 131 97 175 18 189 209 201 39 89 251 131 270 285 297 189 134 216 210 215 195 272 254 502 305 370 545 606 448 550 485 680 481 637 794 463 633 739 817 708 864 890 866 906 966 1426 1339 1110 752 1147 964 1094 1047 920 975 971 983 1045 1231 1509 1495 1518 1530 1539 1358 1297 1415 1233 1051 944 997 1071 1157 1235 1190 1095 914 912 797 659 646 585 529 469 495 454 447 431 420 387 370 359 334 320 298 305 319 337 374 375 369 352 341 321 288 310 293 270 291 278 246 228 212 206 69 169 145 140 107 124 124 45 41 38 78 79 197 201 20 18 17 10 10 15 15 17 14 128 240 58 143 232 -9999
75 67 71 60 95 89 96 99 49 29 80 91 11 119 159 125 164 19 97 174 219 226 116 237 90 154 240 189 206 222 483 406 254 249 400 427 495 450 349 311 348 353 265 202 486 938 818 697 659 653 701 1087 1107 1167 978 949 793 1060 785 794 756 733 795 889 923 1081 1238 1501 1677 1738 1699 1723 1482 1390 1330 1138 996 860 806 814 943 1412 1275 1011 901 752 772 753 681 624 624 565 503 483 468 434 403 359 373 376 343 321 281 344 364 396 392 375 396 350 372 367 380 360 305 306 294 275 268 209 172 108 198 176 97 55 57 74 33 142 100 53 81 228 109 80 15 17 11 7 10 19 10 18 19 58 188 22 66 84 -9999
38 45 59 52 44 72 78 92 75 82 54 92 9 15 104 139 61 29 10 156 168 186 149 16 24 114 92 225 244 308 361 332 222 256 237 236 367 242 507 387 115 191 350 392 722 896 692 530 561 635 815 901 1050 836 942 643 625 990 813 600 489 545 669 891 1138 1003 1301 1448 1532 1596 1623 1610 1524 1296 1270 1072 1012 931 761 778 886 1026 1197 1154 933 751 634 575 634 768 643 613 487 440 490 448 398 342 325 342 347 304 266 324 333 361 400 436 410 370 390 412 514 593 355 318 309 307 302 289 176 243 138 117 198 188 159 150 36 30 28 31 31 100 80 33 9 12 8 9 5 13 9 18 20 30 48 19 17 21 -9999
53 17 3 2 17 20 10 57 44 33 12 30 58 80 31 82 9 72 112 138 125 124 14 139 151 146 169 153 185 228 205 196 296 164 244 295 353 187 347 288 147 250 383 475 660 465 353 520 502 734 930 1007 809 723 732 629 623 922 742 740 600 544 788 984 928 981 1141 1286 1128 1386 1454 1363 1272 1177 971 855 804 893 906 697 810 907 1016 1177 998 862 774 669 575 515 627 592 527 462 454 467 389 355 328 315 280 263 245 269 320 326 359 398 399 411 370 456 557 570 486 370 431 353 359 260 253 176 106 68 90 59 37 37 34 38 37 22 29 63 64 23 21 10 10 9 8 11 8 8 11 14 84 19 16 52 -9999
-9999 -9999 0 3 9 37 31 15 28 20 13 40 16 8 6 44 34 77 55 68 80 37 59 63 111 107 98 80 69 151 215 280 258 108 209 151 181 278 393 275 206 342 250 348 455 291 551 640 634 673 653 807 744 513 536 490 628 792 606 581 516 571 739 796 814 990 1088 935 963 1261 1383 1275 1109 1160 1091 1095 963 824 788 714 872 952 1040 1066 1005 943 746 629 589 557 454 598 519 408 424 552 477 426 365 372 363 351 232 274 301 303 336 431 415 396 432 537 728 954 537 534 548 434 348 365 232 156 119 93 101 96 54 48 37 41 45 80 19 23 51 36 39 48 44 26 15 19 11 41 38 9 13 8 13 42 -9999
-9999 -9999 -9999 -9999 -9999 -9999 -9999 -9999 -9999 -9999 8 16 22 6 4 32 8 22 55 56 67 73 15 61 70 94 93 126 124 135 152 227 187 109 194 193 199 211 284 199 224 322 262 292 405 590 580 584 585 436 608 751 626 478 440 441 716 823 567 350 360 605 613 640 817 815 854 764 1074 1424 1399 1196 1081 1186 1068 855 819 859 679 681 728 796 891 923 951 939 789 725 694 503 448 361 332 357 356 380 414 292 298 362 509 398 262 262 260 283 409 441 365 393 466 566 765 797 653 507 463 431 575 330 197 251 205 221 137 173 125 121 51 71 25 22 16 18 17 29 33 15 14 12 43 9 10 6 7 18 12 10 9 15 -9999
-9999 -9999 -9999 -9999 -9999 -9999 -9999 -9999 -9999 -9999 -9999 -9999 -9999 -9999 -9999 -9999 5 9 36 49 23 24 36 13 45 30 57 111 47 127 73 89 110 133 99 190 183 166 219 49 269 129 281 362 268 412 467 424 397 451 430 614 586 466 399 337 664 682 474 337 353 410 558 536 587 649 678 919 1379 1104 1330 1332 1118 1015 1104 962 809 776 771 611 686 703 767 915 958 883 856 795 710 439 378 339 320 319 262 302 365 362 264 340 427 465 256 194 206 235 242 296 316 329 387 621 632 598 866 675 671 408 381 374 335 313 360 295 100 126 132 150 101 41 34 22 31 35 61 19 16 27 20 23 26 12 6 12 8 13 6 12 6 17 -9999
-9999 -9999 -9999 -9999 -9999 -9999 -9999 -9999 -9999 -9999 -9999 -9999 -9999 -9999 -9999 -9999 -9999 -9999 -9999 -9999 -9999 7 4 10 7 26 21 26 61 61 72 76 65 66 59 109 96 98 149 60 192 190 160 161 228 300 278 344 337 417 426 526 515 366 348 258 584 325 256 250 432 577 893 928 1061 980 917 1072 1065 976 1160 1418 1013 924 1133 1190 849 826 762 654 631 717 850 886 877 861 852 831 827 621 661 412 531 494 400 311 261 381 290 224 441 338 243 211 348 412 398 464 461 474 457 595 731 824 791 636 520 593 552 774 487 438 509 298 221 354 430 424 222 222 216 125 182 247 306 161 28 24 20 16 11 13 15 8 14 19 13 6 13 -9999 -9999
-9999 -9999 -9999 -9999 -9999 -9999 -9999 -9999 -9999 -9999 -9999 -9999 -9999 -9999 -9999 -9999 -9999 -9999 -9999 -9999 -9999 -9999 -9999 -9999 -9999 -9999 0 5 22 17 36 32 29 3 30 36 70 28 59 44 94 105 154 43 182 188 313 148 376 189 414 354 371 272 272 432 278 257 270 516 417 557 895 938 838 824 856 994 1098 839 1082 1264 1198 930 1015 924 1138 929 804 631 568 608 663 845 797 855 890 766 780 815 805 549 716 560 453 343 239 179 282 336 251 353 285 238 356 375 444 569 609 609 481 492 762 794 950 676 641 882 745 732 610 593 547 442 384 357 340 305 295 300 222 306 277 297 110 47 30 30 17 13 20 8 11 5 14 15 20 9 6 -9999 -9999
-9999 -9999 -9999 -9999 -9999 -9999 -9999 -9999 -9999 -9999 -9999 -9999 -9999 -9999 -9999 -9999 -9999 -9999 -9999 -9999 -9999 -9999 -9999 -9999 -9999 -9999 -9999 -9999 -9999 -9999 -9999 -9999 -9999 -9999 -9999 -9999 -9999 -9999 -9999 2 13 47 111 136 215 87 218 201 199 213 355 309 346 233 223 298 225 215 382 498 523 692 790 565 660 752 636 892 978 850 1086 1197 1156 817 723 821 993 1129 964 690 576 615 905 854 758 631 693 823 753 739 809 754 568 603 507 401 296 226 223 169 192 229 242 230 239 242 310 474 410 395 400 463 477 558 834 972 913 789 567 567 533 536 493 468 431 377 323 263 281 214 149 103 137 73 33 33 22 22 23 19 17 14 11 46 32 12 14 15 5 -9999 -9999
-9999 -9999 -9999 -9999 -9999 -9999 -9999 -9999 -9999 -9999 -9999 -9999 -9999 -9999 -9999 -9999 -9999 -9999 -9999 -9999 -9999 -9999 -9999 -9999 -9999 -9999 -9999 -9999 -9999 -9999 -9999 -9999 -9999 -9999 -9999 -9999 -9999 -9999 -9999 -9999 -9999 -9999 10 54 117 159 201 238 353 384 190 266 253 122 276 354 186 305 520 545 610 528 559 552 570 635 667 942 675 923 847 782 794 569 606 660 736 866 1040 958 659 610 766 867 791 804 671 812 785 640 612 547 477 608 641 515 591 389 335 289 241 190 162 195 313 352 451 422 427 378 403 390 384 458 867 827 773 752 582 549 563 547 549 544 564 432 278 339 235 152 115 104 63 43 25 33 36 36 30 21 19 18 47 5 7 8 8 17 13 -9999 -9999
-9999 -9999 -9999 -9999 -9999 -9999 -9999 -9999 -9999 -9999 -9999 -9999 -9999 -9999 -9999 -9999 -9999 -9999 -9999 -9999 -9999 -9999 -9999 -9999 -9999 -9999 -9999 -9999 -9999 -9999 -9999 -9999 -9999 -9999 -9999 -9999 -9999 -9999 -9999 -9999 -9999 -9999 -9999 -9999 32 44 49 36 177 278 173 247 182 127 257 98 335 356 258 347 441 560 409 568 448 884 845 666 712 722 732 693 622 485 417 444 567 707 950 759 641 645 811 768 812 726 664 722 660 748 458 465 526 451 443 459 512 533 366 331 253 245 145 184 315 431 393 389 422 293 352 360 434 489 810 633 665 652 705 542 520 523 444 463 443 462 372 272 217 312 215 100 173 120 93 89 84 90 40 37 39 22 33 13 9 9 9 15 13 -9999 -9999
-9999 -9999 -9999 -9999 -9999 -9999 -9999 -9999 -9999 -9999 -9999 -9999 -9999 -9999 -9999 -9999 -9999 -9999 -9999 -9999 -9999 -9999 -9999 -9999 -9999 -9999 -9999 -9999 -9999 -9999 -9999 -9999 -9999 -9999 -9999 -9999 -9999 -9999 -9999 -9999 -9999 -9999 -9999 -9999 28 -9999 21 33 99 63 114 132 215 130 121 325 319 294 306 384 430 448 318 527 454 549 692 410 671 868 527 541 481 501 349 485 660 740 776 678 476 595 801 709 764 742 755 593 711 587 485 445 563 525 424 408 443 498 563 541 491 313 145 276 380 483 335 349 362 271 265 254 351 451 727 559 487 480 531 540 382 360 444 459 429 450 473 391 378 394 391 249 189 226 71 216 367 147 171 187 300 196 137 5 4 7 6 3 14 -9999 -9999
-9999 -9999 -9999 -9999 -9999 -9999 -9999 -9999 -9999 -9999 -9999 -9999 -9999 -9999 -9999 -9999 -9999 -9999 -9999 -9999 -9999 -9999 -9999 -9999 -9999 -9999 -9999 -9999 -9999 -9999 -9999 -9999 -9999 -9999 -9999 -9999 -9999 -9999 -9999 -9999 -9999 -9999 -9999 -9999 -9999 -9999 -9999 -9999 16 33 37 52 94 72 189 241 193 241 275 301 407 348 391 386 343 557 647 321 663 557 455 589 463 359 407 466 779 639 743 645 446 571 908 766 603 739 664 733 637 679 446 466 371 569 561 374 545 415 470 421 390 477 248 262 334 365 372 276 307 293 330 338 349 459 471 483 516 389 523 487 368 261 394 464 457 416 424 398 410 380 368 321 293 156 167 284 401 466 543 531 493 339 174 14 7 7 3 4 14 -9999 -9999
-9999 -9999 -9999 -9999 -9999 -9999 -9999 -9999 -9999 -9999 -9999 -9999 -9999 -9999 -9999 -9999 -9999 -9999 -9999 -9999 -9999 -9999 -9999 -9999 -9999 -9999 -9999 -9999 -9999 -9999 -9999 -9999 -9999 -9999 -9999 -9999 -9999 -9999 -9999 -9999 -9999 -9999 -9999 -9999 -9999 -9999 -9999 -9999 -9999 -9999 -9999 21 41 74 135 190 103 251 216 337 231 262 357 278 376 505 485 244 561 276 365 501 493 362 246 474 795 854 604 766 403 822 787 778 571 681 642 688 624 449 641 688 544 344 364 334 483 273 379 363 441 472 307 144 197 236 403 275 241 286 231 206 286 355 430 318 319 405 396 366 245 441 455 468 472 430 408 372 438 415 402 313 208 269 304 366 447 570 568 551 516 410 210 41 14 12 15 9 4 -9999 -9999
-9999 -9999 -9999 -9999 -9999 -9999 -9999 -9999 -9999 -9999 -9999 -9999 -9999 -9999 -9999 -9999 -9999 -9999 -9999 -9999 -9999 -9999 -9999 -9999 -9999 -9999 -9999 -9999 -9999 -9999 -9999 -9999 -9999 -9999 -9999 -9999 -9999 -9999 -9999 -9999 -9999 -9999 -9999 -9999 -9999 -9999 -9999 -9999 -9999 -9999 -9999 -9999 -9999 -9999 34 86 93 95 218 231 208 312 163 258 455 438 517 192 426 271 657 509 424 383 389 386 531 668 386 624 408 546 657 661 662 471 685 594 669 572 435 602 483 343 286 289 365 266 263 374 331 348 359 203 196 145 337 380 275 279 206 170 270 397 306 413 380 399 390 309 339 418 388 409 492 439 334 431 419 408 482 448 329 327 424 471 486 541 567 458 417 406 314 186 23 12 8 5 4 -9999 -9999
-9999 -9999 -9999 -9999 -9999 -9999 -9999 -9999 -9999 -9999 -9999 -9999 -9999 -9999 -9999 -9999 -9999 -9999 -9999 -9999 -9999 -9999 -9999 -9999 -9999 -9999 -9999 -9999 -9999 -9999 -9999 -9999 -9999 -9999 -9999 -9999 -9999 -9999 -9999 -9999 -9999 -9999 -9999 -9999 -9999 -9999 -9999 -9999 -9999 -9999 -9999 -9999 -9999 -9999 -9999 -9999 27 24 85 204 237 269 281 338 350 295 241 269 192 419 584 347 416 473 268 328 660 703 328 418 413 414 594 681 626 560 619 526 434 559 578 337 468 543 554 335 271 265 301 352 306 300 405 332 190 117 166 174 280 257 254 156 333 307 301 358 262 368 322 230 251 300 326 362 399 386 343 271 297 302 414 524 546 552 430 420 491 488 504 481 365 387 302 127 79 20 4 5 5 -9999 -9999
-9999 -9999 -9999 -9999 -9999 -9999 -9999 -9999 -9999 -9999 -9999 -9999 -9999 -9999 -9999 -9999 -9999 -9999 -9999 -9999 -9999 -9999 -9999 -9999 -9999 -9999 -9999 -9999 -9999 -9999 -9999 -9999 -9999 -9999 -9999 -9999 -9999 -9999 -9999 -9999 -9999 -9999 -9999 -9999 -9999 -9999 -9999 -9999 -9999 -9999 -9999 -9999 -9999 -9999 -9999 -9999 13 38 69 78 90 72 214 234 264 132 194 305 224 243 455 313 450 295 154 552 573 520 379 447 309 568 579 633 632 472 406 441 391 534 571 362 432 483 457 478 260 269 261 269 272 326 303 340 318 189 145 157 282 254 255 161 191 262 295 254 280 272 217 132 163 219 234 271 235 256 190 225 282 216 273 268 428 155 182 318 394 463 389 419 341 327 310 197 219 107 17 4 3 -9999 -9999
-9999 -9999 -9999 -9999 -9999 -9999 -9999 -9999 -9999 -9999 -9999 -9999 -9999 -9999 -9999 -9999 -9999 -9999 -9999 -9999 -9999 -9999 -9999 -9999 -9999 -9999 -9999 -9999 -9999 -9999 -9999 -9999 -9999 -9999 -9999 -9999 -9999 -9999 -9999 -9999 -9999 -9999 -9999 -9999 -9999 -9999 -9999 -9999 -9999 -9999 -9999 -9999 -9999 -9999 -9999 -9999 -9999 -9999 3 40 73 98 122 142 165 167 198 87 296 227 295 366 293 194 146 463 548 430 295 389 241 467 450 563 633 410 400 522 456 528 413 446 373 486 421 321 266 347 330 296 286 287 215 309 300 204 117 285 261 233 257 236 155 221 252 260 180 173 191 168 213 211 196 220 222 153 189 219 213 180 163 231 161 252 135 162 212 298 332 250 304 285 266 259 224 96 5 5 5 -9999 -9999
-9999 -9999 -9999 -9999 -9999 -9999 -9999 -9999 -9999 -9999 -9999 -9999 -9999 -9999 -9999 -9999 -9999 -9999 -9999 -9999 -9999 -9999 -9999 -9999 -9999 -9999 -9999 -9999 -9999 -9999 -9999 -9999 -9999 -9999 -9999 -9999 -9999 -9999 -9999 -9999 -9999 -9999 -9999 -9999 -9999 -9999 -9999 -9999 -9999 -9999 -9999 -9999 -9999 -9999 -9999 -9999 -9999 -9999 -9999 26 53 45 125 165 125 148 142 184 261 338 384 329 229 168 203 217 518 267 177 474 207 391 362 568 462 501 308 394 470 491 331 400 303 325 320 270 252 262 266 266 279 225 113 180 288 183 198 262 263 233 313 270 271 124 98 97 91 181 178 167 178 169 193 190 181 173 132 151 141 150 165 135 135 192 225 69 189 325 171 132 266 296 285 235 136 104 36 9 2 -9999 -9999
-9999 -9999 -9999 -9999 -9999 -9999 -9999 -9999 -9999 -9999 -9999 -9999 -9999 -9999 -9999 -9999 -9999 -9999 -9999 -9999 -9999 -9999 -9999 -9999 -9999 -9999 -9999 -9999 -9999 -9999 -9999 -9999 -9999 -9999 -9999 -9999 -9999 -9999 -9999 -9999 -9999 -9999 -9999 -9999 -9999 -9999 -9999 -9999 -9999 -9999 -9999 -9999 -9999 -9999 -9999 -9999 -9999 -9999 -9999 -9999 9 15 22 97 121 56 172 238 101 291 282 314 191 115 280 200 449 184 214 447 199 266 419 353 430 485 441 384 219 262 455 447 389 258 249 238 244 275 254 271 266 269 156 91 108 117 92 213 266 248 237 225 204 202 193 173 82 149 152 136 135 148 179 163 156 155 174 160 160 128 130 116 137 154 142 142 37 121 162 167 116 260 157 200 231 199 21 21 9 -9999 -9999
-9999 -9999 -9999 -9999 -9999 -9999 -9999 -9999 -9999 -9999 -9999 -9999 -9999 -9999 -9999 -9999 -9999 -9999 -9999 -9999 -9999 -9999 -9999 -9999 -9999 -9999 -9999 -9999 -9999 -9999 -9999 -9999 -9999 -9999 -9999 -9999 -9999 -9999 -9999 -9999 -9999 -9999 -9999 -9999 -9999 -9999 -9999 -9999 -9999 -9999 -9999 -9999 -9999 -9999 -9999 -9999 -9999 -9999 -9999 -9999 -9999 9 14 12 18 35 35 159 178 81 96 207 235 65 100 238 161 140 242 345 160 228 381 436 417 435 311 373 315 168 273 293 239 237 264 271 255 254 256 281 252 246 246 152 118 78 88 145 224 235 220 213 196 198 170 148 112 141 137 122 133 143 136 116 110 105 117 112 119 132 128 90 61 78 72 63 72 58 115 147 125 108 117 120 188 200 119 67 13 -9999 -9999
-9999 -9999 -9999 -9999 -9999 -9999 -9999 -9999 -9999 -9999 -9999 -9999 -9999 -9999 -9999 -9999 -9999 -9999 -9999 -9999 -9999 -9999 -9999 -9999 -9999 -9999 -9999 -9999 -9999 -9999 -9999 -9999 -9999 -9999 -9999 -9999 -9999 -9999 -9999 -9999 -9999 -9999 -9999 -9999 -9999 -9999 -9999 -9999 -9999 -9999 -9999 -9999 -9999 -9999 -9999 -9999 -9999 -9999 -9999 -9999 -9999 -9999 8 6 8 7 12 45 96 106 75 149 31 106 165 196 176 300 297 343 162 169 219 340 305 323 292 326 316 175 170 234 271 211 229 246 272 256 251 238 245 235 246 247 53 146 255 253 275 308 234 188 184 181 158 106 77 134 134 132 128 164 138 162 148 114 128 131 126 117 63 17 10 28 26 26 11 21 16 39 46 74 75 201 157 189 196 168 53 -9999 -9999
-9999 -9999 -9999 -9999 -9999 -9999 -9999 -9999 -9999 -9999 -9999 -9999 -9999 -9999 -9999 -9999 -9999 -9999 -9999 -9999 -9999 -9999 -9999 -9999 -9999 -9999 -9999 -9999 -9999 -9999 -9999 -9999 -9999 -9999 -9999 -9999 -9999 -9999 -9999 -9999 -9999 -9999 -9999 -9999 -9999 -9999 -9999 -9999 -9999 -9999 -9999 -9999 -9999 -9999 -9999 -9999 -9999 -9999 -9999 -9999 -9999 -9999 -9999 -9999 -9999 -9999 3 7 12 31 96 37 94 71 157 55 222 227 245 287 135 160 309 309 227 279 271 260 292 161 206 256 237 220 213 226 229 256 281 217 219 210 170 73 172 311 293 243 237 190 198 165 164 204 190 140 99 109 102 139 136 131 130 96 99 127 128 75 140 87 17 7 4 5 14 31 9 9 18 2 5 28 35 31 107 166 155 159 155 -9999 -9999
-9999 -9999 -9999 -9999 -9999 -9999 -9999 -9999 -9999 -9999 -9999 -9999 -9999 -9999 -9999 -9999 -9999 -9999 -9999 -9999 -9999 -9999 -9999 -9999 -9999 -9999 -9999 -9999 -9999 -9999 -9999 -9999 -9999 -9999 -9999 -9999 -9999 -9999 -9999 -9999 -9999 -9999 -9999 -9999 -9999 -9999 -9999 -9999 -9999 -9999 -9999 -9999 -9999 -9999 -9999 -9999 -9999 -9999 -9999 -9999 -9999 -9999 -9999 -9999 -9999 -9999 -9999 -9999 7 6 29 80 70 52 113 20 168 269 294 304 131 122 259 124 104 188 141 283 228 280 244 214 219 179 192 184 216 286 281 184 70 151 204 235 247 179 233 147 177 180 234 155 155 154 125 132 124 99 161 137 128 111 109 99 138 100 99 19 19 39 13 6 9 17 15 11 13 16 13 11 6 3 10 17 12 22 125 95 119 -9999 -9999
-9999 -9999 -9999 -9999 -9999 -9999 -9999 -9999 -9999 -9999 -9999 -9999 -9999 -9999 -9999 -9999 -9999 -9999 -9999 -9999 -9999 -9999 -9999 -9999 -9999 -9999 -9999 -9999 -9999 -9999 -9999 -9999 -9999 -9999 -9999 -9999 -9999 -9999 -9999 -9999 -9999 -9999 -9999 -9999 -9999 -9999 -9999 -9999 -9999 -9999 -9999 -9999 -9999 -9999 -9999 -9999 -9999 -9999 -9999 -9999 -9999 -9999 -9999 -9999 -9999 -9999 -9999 -9999 -9999 -9999 -9999 0 13 34 22 128 216 219 227 223 163 89 238 78 111 159 178 244 271 124 148 198 155 193 244 189 277 270 215 124 208 196 207 284 263 263 242 137 183 194 159 181 119 88 83 115 146 154 133 127 158 120 140 113 100 102 71 21 17 7 23 16 16 5 4 4 0 9 11 7 9 12 -9999 -9999 -9999 -9999 -9999 0 60 -9999 -9999
-9999 -9999 -9999 -9999 -9999 -9999 -9999 -9999 -9999 -9999 -9999 -9999 -9999 -9999 -9999 -9999 -9999 -9999 -9999 -9999 -9999 -9999 -9999 -9999 -9999 -9999 -9999 -9999 -9999 -9999 -9999 -9999 -9999 -9999 -9999 -9999 -9999 -9999 -9999 -9999 -9999 -9999 -9999 -9999 -9999 -9999 -9999 -9999 -9999 -9999 -9999 -9999 -9999 -9999 -9999 -9999 -9999 -9999 -9999 -9999 -9999 -9999 -9999 -9999 -9999 -9999 -9999 -9999 -9999 -9999 -9999 -9999 -9999 13 63 95 149 198 184 191 31 47 222 18 131 226 38 99 159 109 122 162 160 201 151 188 200 194 207 84 210 170 236 169 225 186 237 112 194 168 192 161 146 131 122 130 121 126 122 111 132 129 120 74 73 17 60 8 9 6 -9999 -9999 -9999 -9999 -9999 -9999 -9999 -9999 -9999 -9999 -9999 11 -9999 -9999 -9999 -9999 -9999 -9999 -9999 -9999 -9999
-9999 -9999 -9999 -9999 -9999 -9999 -9999 -9999 -9999 -9999 -9999 -9999 -9999 -9999 -9999 -9999 -9999 -9999 -9999 -9999 -9999 -9999 -9999 -9999 -9999 -9999 -9999 -9999 -9999 -9999 -9999 -9999 -9999 -9999 -9999 -9999 -9999 -9999 -9999 -9999 -9999 -9999 -9999 -9999 -9999 -9999 -9999 -9999 -9999 -9999 -9999 -9999 -9999 -9999 -9999 -9999 -9999 -9999 -9999 -9999 -9999 -9999 -9999 -9999 -9999 -9999 -9999 -9999 -9999 -9999 -9999 -9999 -9999 -9999 40 81 141 140 140 159 96 106 144 132 24 128 33 89 74 89 67 147 165 144 112 170 166 77 144 38 141 146 169 176 214 181 211 179 139 163 143 164 146 124 73 119 114 113 97 110 114 120 77 102 36 9 44 6 -9999 -9999 -9999 -9999 -9999 -9999 -9999 -9999 -9999 -9999 -9999 -9999 -9999 53 -9999 -9999 -9999 -9999 -9999 -9999 -9999 -9999 -9999
-9999 -9999 -9999 -9999 -9999 -9999 -9999 -9999 -9999 -9999 -9999 -9999 -9999 -9999 -9999 -9999 -9999 -9999 -9999 -9999 -9999 -9999 -9999 -9999 -9999 -9999 -9999 -9999 -9999 -9999 -9999 -9999 -9999 -9999 -9999 -9999 -9999 -9999 -9999 -9999 -9999 -9999 -9999 -9999 -9999 -9999 -9999 -9999 -9999 -9999 -9999 -9999 -9999 -9999 -9999 -9999 -9999 -9999 -9999 -9999 -9999 -9999 -9999 -9999 -9999 -9999 -9999 -9999 -9999 -9999 -9999 -9999 -9999 -9999 21 55 54 58 32 58 34 6 6 11 9 83 8 37 7 68 75 81 117 117 109 132 128 129 122 121 156 164 167 141 196 136 137 99 104 132 129 116 115 138 145 158 129 132 118 98 96 90 94 119 9 9 7 -9999 -9999 -9999 -9999 -9999 -9999 -9999 -9999 -9999 -9999 -9999 -9999 -9999 -9999 19 101 -9999 -9999 -9999 -9999 -9999 -9999 -9999 -9999
-9999 -9999 -9999 -9999 -9999 -9999 -9999 -9999 -9999 -9999 -9999 -9999 -9999 -9999 -9999 -9999 -9999 -9999 -9999 -9999 -9999 -9999 -9999 -9999 -9999 -9999 -9999 -9999 -9999 -9999 -9999 -9999 -9999 -9999 -9999 -9999 -9999 -9999 -9999 -9999 -9999 -9999 -9999 -9999 -9999 -9999 -9999 -9999 -9999 -9999 -9999 -9999 -9999 -9999 -9999 -9999 -9999 -9999 -9999 -9999 -9999 -9999 -9999 -9999 -9999 -9999 -9999 -9999 -9999 -9999 -9999 -9999 -9999 -9999 10 25 31 40 -9999 -9999 -9999 -9999 -9999 10 7 10 11 43 26 37 46 80 78 86 81 71 118 15 113 104 118 128 117 139 117 119 100 110 89 126 115 145 133 109 108 152 131 110 124 111 117 101 104 84 45 12 12 14 -9999 -9999 -9999 -9999 -9999 -9999 -9999 -9999 -9999 -9999 -9999 -9999 -9999 -9999 -9999 -9999 -9999 -9999 -9999 -9999 -9999 -9999 -9999
-9999 -9999 -9999 -9999 -9999 -9999 -9999 -9999 -9999 -9999 -9999 -9999 -9999 -9999 -9999 -9999 -9999 -9999 -9999 -9999 -9999 -9999 -9999 -9999 -9999 -9999 -9999 -9999 -9999 -9999 -9999 -9999 -9999 -9999 -9999 -9999 -9999 -9999 -9999 -9999 -9999 -9999 -9999 -9999 -9999 -9999 -9999 -9999 -9999 -9999 -9999 -9999 -9999 -9999 -9999 -9999 -9999 -9999 -9999 -9999 -9999 -9999 -9999 -9999 -9999 -9999 -9999 -9999 -9999 -9999 -9999 -9999 -9999 -9999 -9999 -9999 -9999 -9999 -9999 -9999 -9999 -9999 -9999 -9999 -9999 -9999 -9999 -9999 10 13 22 25 54 49 66 66 43 16 114 36 70 100 117 105 97 79 29 57 72 98 110 122 89 62 90 124 121 117 131 99 111 111 107 108 76 34 49 16 -9999 -9999 -9999 -9999 -9999 -9999 -9999 -9999 -9999 -9999 -9999 -9999 -9999 -9999 -9999 -9999 -9999 -9999 -9999 -9999 -9999 -9999 -9999
-9999 -9999 -9999 -9999 -9999 -9999 -9999 -9999 -9999 -9999 -9999 -9999 -9999 -9999 -9999 -9999 -9999 -9999 -9999 -9999 -9999 -9999 -9999 -9999 -9999 -9999 -9999 -9999 -9999 -9999 -9999 -9999 -9999 -9999 -9999 -9999 -9999 -9999 -9999 -9999 -9999 -9999 -9999 -9999 -9999 -9999 -9999 -9999 -9999 -9999 -9999 -9999 -9999 -9999 -9999 -9999 -9999 -9999 -9999 -9999 -9999 -9999 -9999 -9999 -9999 -9999 -9999 -9999 -9999 -9999 -9999 -9999 -9999 -9999 -9999 -9999 -9999 -9999 -9999 -9999 -9999 -9999 -9999 -9999 -9999 -9999 -9999 -9999 -9999 -9999 -9999 11 25 31 40 21 10 24 47 58 32 18 70 68 66 30 30 70 61 87 41 93 104 105 133 110 106 110 115 84 89 99 97 88 107 57 49 55 -9999 -9999 -9999 -9999 -9999 -9999 -9999 -9999 -9999 -9999 -9999 -9999 -9999 -9999 -9999 -9999 -9999 -9999 -9999 -9999 -9999 -9999 -9999
-9999 -9999 -9999 -9999 -9999 -9999 -9999 -9999 -9999 -9999 -9999 -9999 -9999 -9999 -9999 -9999 -9999 -9999 -9999 -9999 -9999 -9999 -9999 -9999 -9999 -9999 -9999 -9999 -9999 -9999 -9999 -9999 -9999 -9999 -9999 -9999 -9999 -9999 -9999 -9999 -9999 -9999 -9999 -9999 -9999 -9999 -9999 -9999 -9999 -9999 -9999 -9999 -9999 -9999 -9999 -9999 -9999 -9999 -9999 -9999 -9999 -9999 -9999 -9999 -9999 -9999 -9999 -9999 -9999 -9999 -9999 -9999 -9999 -9999 -9999 -9999 -9999 -9999 -9999 -9999 -9999 -9999 -9999 -9999 -9999 -9999 -9999 -9999 -9999 -9999 -9999 -9999 -9999 -9999 -9999 -9999 -9999 9 15 17 43 32 22 52 39 41 36 19 33 78 28 73 101 104 106 103 79 94 104 92 95 95 91 72 62 56 37 31 -9999 -9999 -9999 -9999 -9999 -9999 -9999 -9999 -9999 -9999 -9999 -9999 -9999 -9999 -9999 -9999 -9999 -9999 -9999 -9999 -9999 -9999 -9999
-9999 -9999 -9999 -9999 -9999 -9999 -9999 -9999 -9999 -9999 -9999 -9999 -9999 -9999 -9999 -9999 -9999 -9999 -9999 -9999 -9999 -9999 -9999 -9999 -9999 -9999 -9999 -9999 -9999 -9999 -9999 -9999 -9999 -9999 -9999 -9999 -9999 -9999 -9999 -9999 -9999 -9999 -9999 -9999 -9999 -9999 -9999 -9999 -9999 -9999 -9999 -9999 -9999 -9999 -9999 -9999 -9999 -9999 -9999 -9999 -9999 -9999 -9999 -9999 -9999 -9999 -9999 -9999 -9999 -9999 -9999 -9999 -9999 -9999 -9999 -9999 -9999 -9999 -9999 -9999 -9999 -9999 -9999 -9999 -9999 -9999 -9999 -9999 -9999 -9999 -9999 -9999 -9999 -9999 -9999 -9999 -9999 -9999 0 10 48 36 12 8 21 28 26 37 21 17 53 40 15 76 85 82 88 99 84 93 67 69 67 41 30 25 15 27 -9999 -9999 -9999 -9999 -9999 -9999 -9999 -9999 -9999 -9999 -9999 -9999 -9999 -9999 -9999 -9999 -9999 -9999 -9999 -9999 -9999 -9999 -9999
-9999 -9999 -9999 -9999 -9999 -9999 -9999 -9999 -9999 -9999 -9999 -9999 -9999 -9999 -9999 -9999 -9999 -9999 -9999 -9999 -9999 -9999 -9999 -9999 -9999 -9999 -9999 -9999 -9999 -9999 -9999 -9999 -9999 -9999 -9999 -9999 -9999 -9999 -9999 -9999 -9999 -9999 -9999 -9999 -9999 -9999 -9999 -9999 -9999 -9999 -9999 -9999 -9999 -9999 -9999 -9999 -9999 -9999 -9999 -9999 -9999 -9999 -9999 -9999 -9999 -9999 -9999 -9999 -9999 -9999 -9999 -9999 -9999 -9999 -9999 -9999 -9999 -9999 -9999 -9999 -9999 -9999 -9999 -9999 -9999 -9999 -9999 -9999 -9999 -9999 -9999 -9999 -9999 -9999 -9999 -9999 -9999 -9999 -9999 -9999 -9999 -9999 -9999 -9999 7 19 33 27 14 17 40 60 55 34 65 69 71 37 71 57 36 32 24 17 23 23 17 -9999 -9999 -9999 -9999 -9999 -9999 -9999 -9999 -9999 -9999 -9999 -9999 -9999 -9999 -9999 -9999 -9999 -9999 -9999 -9999 -9999 -9999 -9999 -9999
-9999 -9999 -9999 -9999 -9999 -9999 -9999 -9999 -9999 -9999 -9999 -9999 -9999 -9999 -9999 -9999 -9999 -9999 -9999 -9999 -9999 -9999 -9999 -9999 -9999 -9999 -9999 -9999 -9999 -9999 -9999 -9999 -9999 -9999 -9999 -9999 -9999 -9999 -9999 -9999 -9999 -9999 -9999 -9999 -9999 -9999 -9999 -9999 -9999 -9999 -9999 -9999 -9999 -9999 -9999 -9999 -9999 -9999 -9999 -9999 -9999 -9999 -9999 -9999 -9999 -9999 -9999 -9999 -9999 -9999 -9999 -9999 -9999 -9999 -9999 -9999 -9999 -9999 -9999 -9999 -9999 -9999 -9999 -9999 -9999 -9999 -9999 -9999 -9999 -9999 -9999 -9999 -9999 -9999 -9999 -9999 -9999 -9999 -9999 -9999 -9999 -9999 -9999 -9999 -9999 -9999 -9999 -9999 -9999 -9999 8 13 19 13 39 35 30 23 19 17 5 11 3 16 19 -9999 -9999 -9999 -9999 -9999 -9999 -9999 -9999 -9999 -9999 -9999 -9999 -9999 -9999 -9999 -9999 -9999 -9999 -9999 -9999 -9999 -9999 -9999 -9999 -9999 -9999
-9999 -9999 -9999 -9999 -9999 -9999 -9999 -9999 -9999 -9999 -9999 -9999 -9999 -9999 -9999 -9999 -9999 -9999 -9999 -9999 -9999 -9999 -9999 -9999 -9999 -9999 -9999 -9999 -9999 -9999 -9999 -9999 -9999 -9999 -9999 -9999 -9999 -9999 -9999 -9999 -9999 -9999 -9999 -9999 -9999 -9999 -9999 -9999 -9999 -9999 -9999 -9999 -9999 -9999 -9999 -9999 -9999 -9999 -9999 -9999 -9999 -9999 -9999 -9999 -9999 -9999 -9999 -9999 -9999 -9999 -9999 -9999 -9999 -9999 -9999 -9999 -9999 -9999 -9999 -9999 -9999 -9999 -9999 -9999 -9999 -9999 -9999 -9999 -9999 -9999 -9999 -9999 -9999 -9999 -9999 -9999 -9999 -9999 -9999 -9999 -9999 -9999 -9999 -9999 -9999 -9999 -9999 -9999 -9999 -9999 -9999 -9999 -9999 -9999 -9999 -9999 -9999 -9999 -9999 -9999 -9999 -9999 -9999 -9999 -9999 -9999 -9999 -9999 -9999 -9999 -9999 -9999 -9999 -9999 -9999 -9999 -9999 -9999 -9999 -9999 -9999 -9999 -9999 -9999 -9999 -9999 -9999 -9999 -9999 -9999 -9999
-9999 -9999 -9999 -9999 -9999 -9999 -9999 -9999 -9999 -9999 -9999 -9999 -9999 -9999 -9999 -9999 -9999 -9999 -9999 -9999 -9999 -9999 -9999 -9999 -9999 -9999 -9999 -9999 -9999 -9999 -9999 -9999 -9999 -9999 -9999 -9999 -9999 -9999 -9999 -9999 -9999 -9999 -9999 -9999 -9999 -9999 -9999 -9999 -9999 -9999 -9999 -9999 -9999 -9999 -9999 -9999 -9999 -9999 -9999 -9999 -9999 -9999 -9999 -9999 -9999 -9999 -9999 -9999 -9999 -9999 -9999 -9999 -9999 -9999 -9999 -9999 -9999 -9999 -9999 -9999 -9999 -9999 -9999 -9999 -9999 -9999 -9999 -9999 -9999 -9999 -9999 -9999 -9999 -9999 -9999 -9999 -9999 -9999 -9999 -9999 -9999 -9999 -9999 -9999 -9999 -9999 -9999 -9999 -9999 -9999 -9999 -9999 -9999 -9999 -9999 -9999 -9999 -9999 -9999 -9999 -9999 -9999 -9999 -9999 -9999 -9999 -9999 -9999 -9999 -9999 -9999 -9999 -9999 -9999 -9999 -9999 -9999 -9999 -9999 -9999 -9999 -9999 -9999 -9999 -9999 -9999 -9999 -9999 -9999 -9999 -9999
-9999 -9999 -9999 -9999 -9999 -9999 -9999 -9999 -9999 -9999 -9999 -9999 -9999 -9999 -9999 -9999 -9999 -9999 -9999 -9999 -9999 -9999 -9999 -9999 -9999 -9999 -9999 -9999 -9999 -9999 -9999 -9999 -9999 -9999 -9999 -9999 -9999 -9999 -9999 -9999 -9999 -9999 -9999 -9999 -9999 -9999 -9999 -9999 -9999 -9999 -9999 -9999 -9999 -9999 -9999 -9999 -9999 -9999 -9999 -9999 -9999 -9999 -9999 -9999 -9999 -9999 -9999 -9999 -9999 -9999 -9999 -9999 -9999 -9999 -9999 -9999 -9999 -9999 -9999 -9999 -9999 -9999 -9999 -9999 -9999 -9999 -9999 -9999 -9999 -9999 -9999 -9999 -9999 -9999 -9999 -9999 -9999 -9999 -9999 -9999 -9999 -9999 -9999 -9999 -9999 -9999 -9999 -9999 -9999 -9999 -9999 -9999 -9999 -9999 -9999 -9999 -9999 -9999 -9999 -9999 -9999 -9999 -9999 -9999 -9999 -9999 -9999 -9999 -9999 -9999 -9999 -9999 -9999 -9999 -9999 -9999 -9999 -9999 -9999 -9999 -9999 -9999 -9999 -9999 -9999 -9999 -9999 -9999 -9999 -9999 -9999
-9999 -9999 -9999 -9999 -9999 -9999 -9999 -9999 -9999 -9999 -9999 -9999 -9999 -9999 -9999 -9999 -9999 -9999 -9999 -9999 -9999 -9999 -9999 -9999 -9999 -9999 -9999 -9999 -9999 -9999 -9999 -9999 -9999 -9999 -9999 -9999 -9999 -9999 -9999 -9999 -9999 -9999 -9999 -9999 -9999 -9999 -9999 -9999 -9999 -9999 -9999 -9999 -9999 -9999 -9999 -9999 -9999 -9999 -9999 -9999 -9999 -9999 -9999 -9999 -9999 -9999 -9999 -9999 -9999 -9999 -9999 -9999 -9999 -9999 -9999 -9999 -9999 -9999 -9999 -9999 -9999 -9999 -9999 -9999 -9999 -9999 -9999 -9999 -9999 -9999 -9999 -9999 -9999 -9999 -9999 -9999 -9999 -9999 -9999 -9999 -9999 -9999 -9999 -9999 -9999 -9999 -9999 -9999 -9999 -9999 -9999 -9999 -9999 -9999 -9999 -9999 -9999 -9999 -9999 -9999 -9999 -9999 -9999 -9999 -9999 -9999 -9999 -9999 -9999 -9999 -9999 -9999 -9999 -9999 -9999 -9999 -9999 -9999 -9999 -9999 -9999 -9999 -9999 -9999 -9999 -9999 -9999 -9999 -9999 -9999 -9999
-9999 -9999 -9999 -9999 -9999 -9999 -9999 -9999 -9999 -9999 -9999 -9999 -9999 -9999 -9999 -9999 -9999 -9999 -9999 -9999 -9999 -9999 -9999 -9999 -9999 -9999 -9999 -9999 -9999 -9999 -9999 -9999 -9999 -9999 -9999 -9999 -9999 -9999 -9999 -9999 -9999 -9999 -9999 -9999 -9999 -9999 -9999 -9999 -9999 -9999 -9999 -9999 -9999 -9999 -9999 -9999 -9999 -9999 -9999 -9999 -9999 -9999 -9999 -9999 -9999 -9999 -9999 -9999 -9999 -9999 -9999 -9999 -9999 -9999 -9999 -9999 -9999 -9999 -9999 -9999 -9999 -9999 -9999 -9999 -9999 -9999 -9999 -9999 -9999 -9999 -9999 -9999 -9999 -9999 -9999 -9999 -9999 -9999 -9999 -9999 -9999 -9999 -9999 -9999 -9999 -9999 -9999 -9999 -9999 -9999 -9999 -9999 -9999 -9999 -9999 -9999 -9999 -9999 -9999 -9999 -9999 -9999 -9999 -9999 -9999 -9999 -9999 -9999 -9999 -9999 -9999 -9999 -9999 -9999 -9999 -9999 -9999 -9999 -9999 -9999 -9999 -9999 -9999 -9999 -9999 -9999 -9999 -9999 -9999 -9999 -9999
-9999 -9999 -9999 -9999 -9999 -9999 -9999 -9999 -9999 -9999 -9999 -9999 -9999 -9999 -9999 -9999 -9999 -9999 -9999 -9999 -9999 -9999 -9999 -9999 -9999 -9999 -9999 -9999 -9999 -9999 -9999 -9999 -9999 -9999 -9999 -9999 -9999 -9999 -9999 -9999 -9999 -9999 -9999 -9999 -9999 -9999 -9999 -9999 -9999 -9999 -9999 -9999 -9999 -9999 -9999 -9999 -9999 -9999 -9999 -9999 -9999 -9999 -9999 -9999 -9999 -9999 -9999 -9999 -9999 -9999 -9999 -9999 -9999 -9999 -9999 -9999 -9999 -9999 -9999 -9999 -9999 -9999 -9999 -9999 -9999 -9999 -9999 -9999 -9999 -9999 -9999 -9999 -9999 -9999 -9999 -9999 -9999 -9999 -9999 -9999 -9999 -9999 -9999 -9999 -9999 -9999 -9999 -9999 -9999 -9999 -9999 -9999 -9999 -9999 -9999 -9999 -9999 -9999 -9999 -9999 -9999 -9999 -9999 -9999 -9999 -9999 -9999 -9999 -9999 -9999 -9999 -9999 -9999 -9999 -9999 -9999 -9999 -9999 -9999 -9999 -9999 -9999 -9999 -9999 -9999 -9999 -9999 -9999 -9999 -9999 -9999
-9999 -9999 -9999 -9999 -9999 -9999 -9999 -9999 -9999 -9999 -9999 -9999 -9999 -9999 -9999 -9999 -9999 -9999 -9999 -9999 -9999 -9999 -9999 -9999 -9999 -9999 -9999 -9999 -9999 -9999 -9999 -9999 -9999 -9999 -9999 -9999 -9999 -9999 -9999 -9999 -9999 -9999 -9999 -9999 -9999 -9999 -9999 -9999 -9999 -9999 -9999 -9999 -9999 -9999 -9999 -9999 -9999 -9999 -9999 -9999 -9999 -9999 -9999 -9999 -9999 -9999 -9999 -9999 -9999 -9999 -9999 -9999 -9999 -9999 -9999 -9999 -9999 -9999 -9999 -9999 -9999 -9999 -9999 -9999 -9999 -9999 -9999 -9999 -9999 -9999 -9999 -9999 -9999 -9999 -9999 -9999 -9999 -9999 -9999 -9999 -9999 -9999 -9999 -9999 -9999 -9999 -9999 -9999 -9999 -9999 -9999 -9999 -9999 -9999 -9999 -9999 -9999 -9999 -9999 -9999 -9999 -9999 -9999 -9999 -9999 -9999 -9999 -9999 -9999 -9999 -9999 -9999 -9999 -9999 -9999 -9999 -9999 -9999 -9999 -9999 -9999 -9999 -9999 -9999 -9999 -9999 -9999 -9999 -9999 -9999 -9999
-9999 -9999 -9999 -9999 -9999 -9999 -9999 -9999 -9999 -9999 -9999 -9999 -9999 -9999 -9999 -9999 -9999 -9999 -9999 -9999 -9999 -9999 -9999 -9999 -9999 -9999 -9999 -9999 -9999 -9999 -9999 -9999 -9999 -9999 -9999 -9999 -9999 -9999 -9999 -9999 -9999 -9999 -9999 -9999 -9999 -9999 -9999 -9999 -9999 -9999 -9999 -9999 -9999 -9999 -9999 -9999 -9999 -9999 -9999 -9999 -9999 -9999 -9999 -9999 -9999 -9999 -9999 -9999 -9999 -9999 -9999 -9999 -9999 -9999 -9999 -9999 -9999 -9999 -9999 -9999 -9999 -9999 -9999 -9999 -9999 -9999 -9999 -9999 -9999 -9999 -9999 -9999 -9999 -9999 -9999 -9999 -9999 -9999 -9999 -9999 -9999 -9999 -9999 -9999 -9999 -9999 -9999 -9999 -9999 -9999 -9999 -9999 -9999 -9999 -9999 -9999 -9999 -9999 -9999 -9999 -9999 -9999 -9999 -9999 -9999 -9999 -9999 -9999 -9999 -9999 -9999 -9999 -9999 -9999 -9999 -9999 -9999 -9999 -9999 -9999 -9999 -9999 -9999 -9999 -9999 -9999 -9999 -9999 -9999 -9999 -9999
-9999 -9999 -9999 -9999 -9999 -9999 -9999 -9999 -9999 -9999 -9999 -9999 -9999 -9999 -9999 -9999 -9999 -9999 -9999 -9999 -9999 -9999 -9999 -9999 -9999 -9999 -9999 -9999 -9999 -9999 -9999 -9999 -9999 -9999 -9999 -9999 -9999 -9999 -9999 -9999 -9999 -9999 -9999 -9999 -9999 -9999 -9999 -9999 -9999 -9999 -9999 -9999 -9999 -9999 -9999 -9999 -9999 -9999 -9999 -9999 -9999 -9999 -9999 -9999 -9999 -9999 -9999 -9999 -9999 -9999 -9999 -9999 -9999 -9999 -9999 -9999 -9999 -9999 -9999 -9999 -9999 -9999 -9999 -9999 -9999 -9999 -9999 -9999 -9999 -9999 -9999 -9999 -9999 -9999 -9999 -9999 -9999 -9999 -9999 -9999 -9999 -9999 -9999 -9999 -9999 -9999 -9999 -9999 -9999 -9999 -9999 -9999 -9999 -9999 -9999 -9999 -9999 -9999 -9999 -9999 -9999 -9999 -9999 -9999 -9999 -9999 -9999 -9999 -9999 -9999 -9999 -9999 -9999 -9999 -9999 -9999 -9999 -9999 -9999 -9999 -9999 -9999 -9999 -9999 -9999 -9999 -9999 -9999 -9999 -9999 -9999
-9999 -9999 -9999 -9999 -9999 -9999 -9999 -9999 -9999 -9999 -9999 -9999 -9999 -9999 -9999 -9999 -9999 -9999 -9999 -9999 -9999 -9999 -9999 -9999 -9999 -9999 -9999 -9999 -9999 -9999 -9999 -9999 -9999 -9999 -9999 -9999 -9999 -9999 -9999 -9999 -9999 -9999 -9999 -9999 -9999 -9999 -9999 -9999 -9999 -9999 -9999 -9999 -9999 -9999 -9999 -9999 -9999 -9999 -9999 -9999 -9999 -9999 -9999 -9999 -9999 -9999 -9999 -9999 -9999 -9999 -9999 -9999 -9999 -9999 -9999 -9999 -9999 -9999 -9999 -9999 -9999 -9999 -9999 -9999 -9999 -9999 -9999 -9999 -9999 -9999 -9999 -9999 -9999 -9999 -9999 -9999 -9999 -9999 -9999 -9999 -9999 -9999 -9999 -9999 -9999 -9999 -9999 -9999 -9999 -9999 -9999 -9999 -9999 -9999 -9999 -9999 -9999 -9999 -9999 -9999 -9999 -9999 -9999 -9999 -9999 -9999 -9999 -9999 -9999 -9999 -9999 -9999 -9999 -9999 -9999 -9999 -9999 -9999 -9999 -9999 -9999 -9999 -9999 -9999 -9999 -9999 -9999 -9999 -9999 -9999 -9999
-9999 -9999 -9999 -9999 -9999 -9999 -9999 -9999 -9999 -9999 -9999 -9999 -9999 -9999 -9999 -9999 -9999 -9999 -9999 -9999 -9999 -9999 -9999 -9999 -9999 -9999 -9999 -9999 -9999 -9999 -9999 -9999 -9999 -9999 -9999 -9999 -9999 -9999 -9999 -9999 -9999 -9999 -9999 -9999 -9999 -9999 -9999 -9999 -9999 -9999 -9999 -9999 -9999 -9999 -9999 -9999 -9999 -9999 -9999 -9999 -9999 -9999 -9999 -9999 -9999 -9999 -9999 -9999 -9999 -9999 -9999 -9999 -9999 -9999 -9999 -9999 -9999 -9999 -9999 -9999 -9999 -9999 -9999 -9999 -9999 -9999 -9999 -9999 -9999 -9999 -9999 -9999 -9999 -9999 -9999 -9999 -9999 -9999 -9999 -9999 -9999 -9999 -9999 -9999 -9999 -9999 -9999 -9999 -9999 -9999 -9999 -9999 -9999 -9999 -9999 -9999 -9999 -9999 -9999 -9999 -9999 -9999 -9999 -9999 -9999 -9999 -9999 -9999 -9999 -9999 -9999 -9999 -9999 -9999 -9999 -9999 -9999 -9999 -9999 -9999 -9999 -9999 -9999 -9999 -9999 -9999 -9999 -9999 -9999 -9999 -9999
-9999 -9999 -9999 -9999 -9999 -9999 -9999 -9999 -9999 -9999 -9999 -9999 -9999 -9999 -9999 -9999 -9999 -9999 -9999 -9999 -9999 -9999 -9999 -9999 -9999 -9999 -9999 -9999 -9999 -9999 -9999 -9999 -9999 -9999 -9999 -9999 -9999 -9999 -9999 -9999 -9999 -9999 -9999 -9999 -9999 -9999 -9999 -9999 -9999 -9999 -9999 -9999 -9999 -9999 -9999 -9999 -9999 -9999 -9999 -9999 -9999 -9999 -9999 -9999 -9999 -9999 -9999 -9999 -9999 -9999 -9999 -9999 -9999 -9999 -9999 -9999 -9999 -9999 -9999 -9999 -9999 -9999 -9999 -9999 -9999 -9999 -9999 -9999 -9999 -9999 -9999 -9999 -9999 -9999 -9999 -9999 -9999 -9999 -9999 -9999 -9999 -9999 -9999 -9999 -9999 -9999 -9999 -9999 -9999 -9999 -9999 -9999 -9999 -9999 -9999 -9999 -9999 -9999 -9999 -9999 -9999 -9999 -9999 -9999 -9999 -9999 -9999 -9999 -9999 -9999 -9999 -9999 -9999 -9999 -9999 -9999 -9999 -9999 -9999 -9999 -9999 -9999 -9999 -9999 -9999 -9999 -9999 -9999 -9999 -9999 -9999
-9999 -9999 -9999 -9999 -9999 -9999 -9999 -9999 -9999 -9999 -9999 -9999 -9999 -9999 -9999 -9999 -9999 -9999 -9999 -9999 -9999 -9999 -9999 -9999 -9999 -9999 -9999 -9999 -9999 -9999 -9999 -9999 -9999 -9999 -9999 -9999 -9999 -9999 -9999 -9999 -9999 -9999 -9999 -9999 -9999 -9999 -9999 -9999 -9999 -9999 -9999 -9999 -9999 -9999 -9999 -9999 -9999 -9999 -9999 -9999 -9999 -9999 -9999 -9999 -9999 -9999 -9999 -9999 -9999 -9999 -9999 -9999 -9999 -9999 -9999 -9999 -9999 -9999 -9999 -9999 -9999 -9999 -9999 -9999 -9999 -9999 -9999 -9999 -9999 -9999 -9999 -9999 -9999 -9999 -9999 -9999 -9999 -9999 -9999 -9999 -9999 -9999 -9999 -9999 -9999 -9999 -9999 -9999 -9999 -9999 -9999 -9999 -9999 -9999 -9999 -9999 -9999 -9999 -9999 -9999 -9999 -9999 -9999 -9999 -9999 -9999 -9999 -9999 -9999 -9999 -9999 -9999 -9999 -9999 -9999 -9999 -9999 -9999 -9999 -9999 -9999 -9999 -9999 -9999 -9999 -9999 -9999 -9999 -9999 -9999 -9999
