ncols         151
nrows         140
xllcorner     804846
yllcorner     9198439
cellsize      134
NODATA_value  -9999
-9999 728 736 736 732 749 757 764 772 772 762 762 754 744 756 765 751 762 769 780 803 833 838 842 846 865 867 845 857 876 920 924 934 936 936 934 937 963 977 998 999 1036 1074 1117 1119 1134 1142 1139 1149 1171 1173 1153 1113 1125 1168 1166 1172 1172 1161 1133 1114 1114 1105 1134 1133 1108 1085 1079 1094 1105 1093 1062 1048 1054 1072 1061 1025 1006 1026 1082 1118 1175 1145 1184 1172 1134 1127 1101 1094 1079 1035 1015 976 935 875 858 854 851 824 840 842 816 795 763 760 745 740 728 723 708 706 707 704 703 703 702 698 696 698 694 690 688 688 685 679 677 672 668 668 663 660 654 652 650 647 647 647 654 658 661 680 690 729 763 787 850 893 996 1071 1172 -9999
-9999 731 738 735 738 753 771 764 775 775 763 765 754 749 763 772 757 769 778 780 801 825 834 844 852 858 866 857 861 879 908 913 939 949 946 936 953 979 987 1003 1015 1043 1088 1149 1164 1182 1200 1207 1207 1214 1215 1192 1144 1156 1187 1189 1206 1216 1208 1150 1127 1125 1105 1123 1107 1091 1091 1106 1117 1124 1091 1070 1084 1089 1082 1067 1065 1029 991 1008 1033 1065 1064 1050 1059 1040 1036 1026 1014 1014 1003 986 943 903 860 853 824 827 810 816 820 798 780 759 755 742 737 728 727 711 707 707 704 704 705 702 699 699 696 694 693 690 686 682 682 678 674 671 671 665 663 654 653 652 650 649 648 650 658 665 695 710 731 759 781 836 878 980 1051 1165 -9999
-9999 744 745 741 757 768 779 775 778 784 777 765 757 752 767 782 776 771 789 795 787 799 803 816 841 858 871 869 874 882 904 919 960 960 947 927 938 973 981 1006 1033 1065 1081 1157 1176 1198 1229 1243 1232 1238 1237 1217 1150 1174 1211 1225 1228 1221 1211 1152 1138 1129 1108 1121 1117 1099 1107 1118 1142 1152 1112 1082 1107 1111 1079 1068 1069 1039 997 984 1003 1030 1032 1008 1014 1001 1000 994 988 984 982 977 931 899 840 821 798 791 775 764 760 742 736 742 747 750 746 733 720 711 710 710 707 705 704 703 700 699 696 694 691 691 688 682 680 678 677 672 673 668 664 658 656 652 648 644 651 652 657 665 722 760 749 753 768 829 869 972 1027 1130 -9999
-9999 747 748 744 757 767 788 784 779 788 777 765 766 756 762 795 789 774 777 794 798 800 806 817 835 858 880 879 886 893 927 923 937 952 957 936 937 948 957 992 1016 1076 1109 1158 1173 1195 1219 1215 1230 1243 1258 1259 1205 1182 1253 1286 1288 1236 1205 1168 1152 1126 1114 1139 1132 1139 1141 1134 1183 1186 1102 1095 1117 1109 1096 1105 1078 1042 1008 954 973 987 1004 993 976 976 971 969 956 958 954 954 920 895 849 829 805 799 763 752 745 735 732 727 730 727 730 719 718 711 709 708 707 706 704 703 699 696 696 695 693 691 689 685 682 676 675 674 675 668 664 660 658 656 646 647 651 649 656 661 692 722 709 730 771 842 869 936 973 1032 -9999
-9999 758 757 750 775 787 800 797 783 787 785 776 779 776 770 790 800 795 793 795 805 810 820 822 840 854 890 888 885 894 918 920 929 940 954 940 937 953 963 973 995 1039 1069 1148 1181 1186 1195 1184 1186 1203 1243 1262 1232 1214 1239 1290 1320 1271 1238 1188 1168 1134 1126 1143 1138 1140 1144 1158 1196 1166 1090 1086 1098 1085 1123 1121 1079 1042 1003 945 959 972 968 967 959 929 919 917 903 917 877 879 862 835 815 805 791 782 758 748 739 732 730 725 723 720 719 715 714 711 710 710 708 706 705 704 698 697 697 697 693 690 688 686 683 679 678 675 673 668 666 662 660 655 647 650 651 655 658 657 669 681 699 730 783 875 906 925 938 971 -9999
-9999 762 763 756 770 788 806 803 793 792 792 786 786 784 785 780 792 812 820 819 822 839 850 839 855 858 866 880 903 909 913 920 947 956 951 958 977 999 1009 1011 998 1001 1011 1067 1089 1099 1140 1138 1141 1142 1185 1225 1264 1247 1285 1292 1327 1358 1333 1260 1217 1164 1132 1156 1170 1163 1163 1185 1183 1124 1070 1083 1061 1065 1127 1111 1061 1031 987 941 941 962 960 960 956 929 903 886 876 884 862 839 824 813 783 782 791 787 753 740 737 732 728 725 723 722 722 718 715 712 710 709 706 706 705 704 699 698 697 694 693 689 688 685 683 682 681 675 672 669 667 663 660 655 649 650 653 654 656 657 666 670 693 733 787 912 935 932 893 850 -9999
-9999 771 774 773 778 792 811 816 803 796 798 790 785 792 790 790 799 824 842 852 853 844 850 853 860 869 870 874 903 914 932 937 967 974 960 976 995 1025 1032 1048 1056 1022 1022 1029 1042 1054 1080 1097 1100 1110 1163 1212 1282 1266 1321 1347 1354 1381 1371 1293 1255 1188 1148 1156 1173 1173 1176 1199 1171 1108 1057 1060 1012 1038 1100 1067 999 981 957 951 938 920 934 931 949 934 926 892 862 834 805 797 790 797 767 752 758 768 739 734 732 732 732 728 727 724 722 719 717 712 712 711 705 705 705 704 698 699 697 693 690 690 688 686 684 681 682 677 674 668 666 661 660 655 651 652 653 654 656 656 665 667 691 723 786 872 894 911 870 801 -9999
-9999 767 778 778 783 802 815 825 809 805 809 797 803 818 819 831 841 863 876 895 906 880 873 871 857 870 886 888 904 906 950 979 1005 1001 986 1001 1001 1040 1063 1101 1112 1103 1070 1113 1099 1152 1142 1130 1141 1131 1171 1228 1317 1307 1320 1358 1376 1364 1348 1361 1306 1206 1171 1140 1158 1187 1184 1204 1175 1110 1043 1031 1010 1050 1089 1049 973 957 943 942 943 912 910 911 927 917 903 893 883 860 805 791 777 782 761 746 744 747 737 735 735 732 732 730 729 726 725 720 717 714 711 710 706 706 704 702 699 700 696 692 689 689 684 686 683 680 679 676 671 666 664 657 654 652 653 652 654 654 659 659 664 666 693 716 749 786 791 781 760 710 -9999
-9999 773 782 789 783 802 820 827 819 812 810 795 817 828 825 848 868 888 906 911 927 913 903 884 865 871 893 902 901 913 946 985 1014 1011 985 1014 1025 1040 1067 1126 1143 1149 1119 1158 1148 1184 1206 1199 1195 1177 1155 1218 1315 1335 1314 1356 1366 1352 1340 1339 1329 1249 1202 1156 1154 1173 1191 1207 1172 1141 1083 1050 986 1015 1020 1015 985 968 927 909 929 932 924 866 872 888 875 867 860 859 858 835 766 763 748 747 745 746 739 738 738 739 740 735 734 730 727 726 723 718 713 710 707 705 704 702 695 697 693 691 687 687 685 682 683 678 677 674 670 665 662 657 654 654 653 654 653 656 657 658 665 667 709 722 742 759 747 723 701 676 -9999
-9999 796 790 790 789 785 807 821 831 830 827 813 845 854 861 910 916 931 950 967 971 961 952 938 916 908 897 901 924 932 963 969 1022 1023 994 1016 1060 1096 1115 1180 1215 1228 1197 1204 1250 1283 1313 1326 1329 1302 1166 1185 1306 1349 1335 1350 1380 1369 1367 1334 1319 1242 1200 1165 1168 1163 1174 1179 1156 1132 1106 1070 983 986 983 988 987 966 916 887 897 895 875 820 840 878 865 852 847 855 860 836 764 759 752 750 749 748 740 741 746 744 744 737 736 729 728 724 723 719 715 711 709 707 703 700 695 692 691 691 687 686 681 680 677 674 672 674 671 666 665 658 658 657 655 654 655 654 657 659 667 686 728 716 732 735 701 664 646 632 -9999
-9999 804 801 789 800 795 806 810 831 838 841 830 862 883 894 948 942 927 952 976 988 976 967 941 920 919 925 924 924 935 965 966 1005 1022 1010 1008 1047 1121 1140 1200 1238 1267 1237 1226 1275 1323 1341 1364 1369 1351 1261 1206 1241 1303 1388 1394 1393 1391 1378 1350 1336 1269 1261 1192 1196 1193 1202 1168 1151 1128 1063 1056 990 950 919 923 927 921 900 861 831 823 813 802 807 826 831 803 822 840 829 810 765 759 754 753 750 749 751 755 749 748 747 741 737 731 729 724 723 717 715 712 709 707 702 701 694 692 689 690 688 684 681 679 676 672 670 672 668 665 665 660 658 656 654 656 656 656 658 659 677 710 717 709 727 709 686 652 636 619 -9999
-9999 825 820 803 814 806 808 816 837 840 846 843 886 924 943 940 941 938 933 968 994 1002 995 958 934 948 960 966 941 943 976 1007 1019 1027 1038 1019 1018 1088 1133 1209 1238 1279 1262 1249 1299 1371 1390 1404 1381 1344 1292 1230 1231 1273 1368 1368 1381 1392 1389 1353 1332 1319 1279 1220 1239 1236 1222 1207 1186 1143 1080 1043 977 948 914 894 883 878 882 859 826 813 810 801 798 804 805 786 791 808 803 789 766 763 757 757 757 754 756 758 754 751 747 744 743 734 730 723 720 717 714 711 706 704 700 700 693 690 685 684 682 680 678 679 673 667 666 667 667 661 656 657 658 661 660 658 657 659 656 656 696 711 701 686 677 679 673 625 616 610 -9999
-9999 832 826 812 829 820 811 817 847 853 858 860 904 937 944 927 934 948 952 967 986 1017 1011 972 943 954 996 999 969 955 989 1010 1028 1031 1053 1047 1027 1058 1085 1152 1181 1220 1235 1287 1322 1407 1427 1426 1353 1363 1337 1312 1311 1325 1358 1386 1388 1392 1402 1398 1366 1303 1280 1332 1358 1330 1318 1308 1272 1215 1102 1069 1046 1031 989 959 897 884 834 828 817 813 809 807 803 795 792 791 788 779 774 772 767 764 764 763 764 762 762 761 756 754 750 746 742 734 733 725 722 718 715 707 703 703 700 695 692 689 684 682 677 677 673 673 670 666 667 666 667 659 661 666 663 670 671 668 660 659 655 654 681 687 678 679 663 666 659 615 611 607 -9999
-9999 844 843 831 843 835 814 822 845 850 879 895 910 912 909 921 920 939 958 990 1004 1015 1024 1024 1016 1011 1071 1075 1006 978 1026 1018 1040 1039 1069 1065 1042 1047 1065 1131 1155 1209 1243 1318 1366 1411 1405 1401 1357 1381 1372 1356 1369 1382 1356 1377 1411 1421 1432 1407 1375 1305 1323 1391 1416 1394 1375 1339 1273 1216 1114 1132 1095 1074 1020 979 939 915 856 833 817 816 812 810 808 802 799 796 796 784 779 776 773 776 783 784 776 777 773 771 762 757 754 749 745 737 735 735 729 722 718 709 705 702 697 695 691 690 685 685 679 676 673 671 670 666 665 670 670 670 675 678 679 682 678 675 680 671 653 649 648 649 648 655 639 634 626 610 609 608 -9999
-9999 847 852 840 855 840 825 825 850 862 886 891 897 901 917 932 932 938 950 989 1008 1010 1023 1046 1051 1059 1084 1094 1081 1058 1069 1074 1067 1074 1085 1093 1066 1069 1089 1177 1208 1243 1281 1351 1387 1399 1387 1395 1383 1380 1412 1434 1448 1448 1424 1392 1390 1428 1465 1403 1370 1341 1375 1458 1496 1503 1467 1376 1304 1245 1216 1239 1197 1154 1047 1010 964 949 909 859 827 817 815 814 810 807 801 801 796 784 780 780 780 782 793 791 783 782 775 772 763 759 754 750 748 742 738 739 734 725 721 714 710 703 696 693 688 687 683 681 678 675 669 667 667 665 664 671 672 674 673 679 677 677 682 680 682 681 658 651 634 624 618 615 614 615 613 611 611 607 -9999
-9999 861 862 858 856 850 835 846 842 853 895 901 906 907 907 933 941 941 953 989 1011 1025 1022 1055 1069 1087 1102 1108 1092 1074 1075 1094 1089 1090 1100 1100 1092 1074 1103 1166 1197 1223 1256 1337 1387 1405 1410 1419 1407 1377 1411 1446 1461 1456 1425 1406 1402 1436 1469 1400 1370 1332 1372 1448 1494 1480 1428 1381 1344 1269 1273 1285 1175 1116 1017 973 901 879 867 855 836 823 824 818 818 818 816 808 799 799 793 795 801 798 804 801 792 788 781 775 768 763 763 759 754 753 742 733 730 723 720 713 712 708 696 691 685 683 682 679 676 673 670 666 666 669 674 683 684 678 675 684 681 679 683 684 681 680 665 652 637 629 634 623 618 616 613 610 610 609 -9999
-9999 869 868 859 862 857 844 857 850 850 892 907 920 916 916 932 934 942 950 971 977 1027 1047 1076 1077 1071 1086 1096 1107 1104 1081 1114 1121 1123 1139 1148 1150 1149 1126 1113 1177 1272 1304 1354 1378 1421 1414 1397 1383 1394 1423 1430 1446 1443 1395 1379 1420 1453 1453 1359 1327 1294 1303 1366 1398 1402 1348 1299 1340 1322 1308 1256 1118 1055 954 916 872 858 840 832 827 825 827 829 826 823 819 810 805 811 803 802 802 802 812 808 796 793 785 782 774 770 768 762 757 745 741 734 729 724 720 710 708 705 700 692 685 683 681 678 673 671 669 666 668 678 683 680 681 677 678 677 678 679 678 679 682 680 673 666 650 650 656 650 655 650 624 610 611 611 -9999
-9999 866 868 877 877 864 864 863 858 859 877 889 894 900 916 920 933 947 960 991 994 1014 1046 1081 1096 1068 1077 1088 1106 1103 1078 1111 1138 1134 1158 1169 1172 1180 1193 1126 1134 1253 1286 1329 1355 1389 1395 1373 1358 1379 1440 1440 1457 1444 1393 1372 1419 1440 1426 1353 1328 1283 1297 1346 1379 1411 1347 1255 1267 1276 1229 1152 1006 971 957 976 945 898 912 895 881 839 840 848 844 827 828 826 828 823 819 815 812 818 819 813 806 803 795 795 789 784 776 763 758 751 746 733 731 725 720 713 705 699 697 696 683 682 678 678 671 671 671 672 678 688 682 679 681 676 677 680 679 678 679 682 679 684 678 665 655 656 657 654 647 634 617 613 613 611 -9999
-9999 872 875 884 885 871 873 875 874 875 880 890 903 903 908 920 932 951 960 1004 1024 1027 1039 1070 1089 1093 1091 1094 1117 1117 1137 1156 1176 1161 1183 1216 1213 1205 1240 1228 1196 1181 1222 1282 1298 1324 1341 1333 1324 1357 1412 1419 1422 1429 1391 1359 1378 1350 1333 1322 1311 1269 1307 1368 1404 1437 1379 1265 1213 1206 1161 1090 994 1007 1024 1029 947 938 969 963 894 858 854 854 849 833 838 833 834 824 821 822 821 823 823 819 811 810 804 802 789 784 778 765 758 745 741 735 733 726 719 710 707 703 693 692 686 684 673 673 672 674 684 689 690 681 681 682 678 676 675 679 677 679 679 680 684 681 678 667 655 651 652 645 625 619 616 613 615 617 -9999
-9999 881 886 892 889 876 880 883 885 887 873 890 910 921 923 919 943 955 962 1003 1036 1054 1054 1088 1106 1108 1105 1103 1133 1143 1154 1185 1190 1187 1211 1231 1230 1213 1240 1273 1251 1174 1186 1267 1264 1285 1306 1313 1329 1346 1371 1376 1379 1377 1345 1338 1337 1293 1246 1240 1247 1290 1326 1408 1449 1514 1453 1305 1233 1121 1082 1062 1107 1146 1168 1113 1053 1059 1092 1059 967 906 885 869 872 869 866 846 845 838 833 831 837 837 834 833 828 826 813 805 793 786 776 772 760 748 741 731 729 720 716 709 706 699 694 693 688 687 675 673 673 679 690 686 682 680 680 682 683 679 677 677 678 683 683 683 681 682 691 675 654 649 659 654 626 619 617 616 616 616 -9999
-9999 892 901 904 898 882 893 899 899 890 894 896 912 915 941 950 948 973 983 997 1020 1063 1076 1128 1150 1133 1126 1148 1205 1232 1222 1215 1248 1250 1256 1270 1248 1238 1252 1278 1290 1251 1208 1219 1241 1241 1253 1316 1324 1323 1334 1340 1335 1322 1305 1324 1301 1263 1234 1241 1254 1296 1344 1426 1484 1539 1472 1328 1258 1162 1132 1107 1170 1208 1209 1164 1131 1131 1128 1089 995 949 928 875 883 880 879 859 855 853 847 839 841 844 844 838 839 836 814 807 794 787 792 786 766 760 748 730 724 718 714 705 700 696 692 686 683 681 679 682 684 689 689 689 688 683 681 683 688 692 686 682 683 683 690 682 685 688 687 676 656 650 646 640 623 623 617 616 616 620 -9999
-9999 888 903 914 900 891 895 898 907 905 910 910 912 919 945 958 969 970 989 1011 1014 1047 1079 1131 1155 1156 1141 1147 1220 1256 1263 1241 1270 1273 1262 1280 1266 1242 1246 1285 1295 1248 1214 1250 1259 1256 1260 1260 1265 1278 1289 1304 1293 1286 1316 1322 1273 1247 1229 1231 1238 1283 1314 1400 1451 1517 1474 1342 1287 1209 1171 1166 1179 1208 1259 1269 1232 1196 1191 1164 1082 1038 984 908 922 900 900 903 892 887 874 869 865 855 850 848 834 827 814 811 803 803 798 789 779 768 761 741 729 714 710 703 697 692 690 684 685 682 683 685 683 685 694 689 688 687 683 682 685 687 684 679 679 680 685 683 683 683 682 676 656 651 645 638 633 629 618 617 621 623 -9999
-9999 892 894 919 907 903 914 920 928 927 931 933 936 942 957 961 976 991 982 1017 1030 1054 1075 1131 1157 1171 1181 1178 1211 1241 1293 1298 1294 1313 1310 1300 1269 1256 1253 1294 1301 1240 1239 1275 1276 1268 1269 1275 1273 1272 1282 1296 1280 1289 1317 1303 1252 1238 1227 1235 1255 1292 1327 1381 1425 1449 1421 1333 1286 1203 1177 1176 1183 1196 1290 1289 1224 1205 1231 1212 1086 1028 972 929 939 907 907 909 902 897 881 868 865 863 854 849 837 833 826 824 813 810 803 804 799 790 775 746 724 706 705 698 696 689 688 686 687 686 685 686 686 691 695 692 684 683 683 691 687 688 688 687 687 688 684 687 686 689 692 688 664 657 651 645 632 629 621 622 623 622 -9999
-9999 903 895 917 908 913 922 932 933 934 942 944 943 952 974 971 978 999 1002 1006 1027 1056 1078 1126 1162 1183 1192 1207 1211 1222 1278 1286 1311 1323 1329 1324 1274 1277 1273 1307 1314 1262 1267 1293 1298 1294 1297 1295 1301 1297 1292 1293 1271 1258 1256 1243 1236 1238 1228 1226 1227 1262 1264 1269 1288 1295 1279 1296 1296 1197 1166 1167 1169 1165 1198 1208 1186 1157 1122 1117 1075 1016 990 991 974 939 932 920 911 899 886 874 872 870 857 851 839 836 829 827 819 817 807 804 802 780 771 740 720 704 702 697 694 692 693 693 690 688 687 688 689 692 695 692 686 693 692 685 687 686 691 691 688 697 693 686 690 693 690 685 662 656 654 643 635 631 624 622 623 621 -9999
-9999 909 906 926 923 926 938 947 950 947 955 971 976 965 992 1000 993 1007 1026 1042 1045 1089 1104 1159 1165 1213 1202 1225 1243 1244 1270 1285 1313 1326 1341 1340 1292 1285 1288 1304 1320 1273 1296 1302 1308 1301 1302 1304 1306 1301 1300 1297 1279 1264 1277 1266 1253 1248 1230 1225 1222 1226 1226 1221 1231 1228 1223 1240 1244 1194 1172 1164 1158 1152 1147 1150 1138 1124 1105 1101 1086 1067 1063 1042 1025 972 948 922 915 904 898 875 872 867 857 854 842 834 833 834 828 824 819 808 804 783 759 727 722 708 705 703 700 701 702 700 692 692 690 694 712 706 693 691 693 694 698 691 686 687 686 697 688 689 686 689 698 694 694 689 662 664 651 654 640 635 628 626 626 630 -9999
-9999 912 922 941 930 928 954 956 959 964 983 984 999 984 999 1009 1009 1010 1020 1055 1055 1106 1113 1165 1180 1204 1225 1230 1287 1293 1315 1334 1349 1343 1367 1357 1344 1336 1329 1333 1344 1296 1317 1347 1335 1328 1329 1322 1322 1320 1326 1326 1300 1281 1332 1326 1273 1256 1240 1232 1223 1208 1205 1198 1197 1195 1191 1186 1189 1171 1165 1161 1156 1154 1143 1137 1134 1123 1115 1112 1104 1099 1090 1059 1044 1007 975 926 917 914 908 876 874 868 863 860 840 836 834 834 823 824 826 813 808 792 764 733 728 714 707 707 705 704 706 702 695 694 693 699 704 708 692 692 694 697 693 688 688 689 689 697 688 686 687 687 700 695 686 677 666 667 675 683 673 664 652 634 635 653 -9999
-9999 925 953 972 958 954 976 978 981 1014 1032 1025 1010 993 1019 1025 1028 1020 1030 1066 1062 1103 1126 1171 1201 1214 1239 1239 1273 1286 1328 1345 1364 1374 1384 1366 1364 1362 1348 1353 1357 1311 1331 1364 1351 1343 1340 1324 1330 1332 1344 1343 1323 1303 1353 1347 1300 1280 1263 1242 1223 1209 1204 1199 1197 1193 1191 1186 1180 1173 1174 1170 1166 1161 1153 1148 1137 1133 1123 1115 1106 1099 1093 1072 1057 1023 995 938 941 936 912 896 893 890 874 867 847 836 832 826 817 814 810 816 820 801 778 746 734 727 719 712 712 708 709 704 699 698 704 702 697 695 691 690 689 691 691 688 687 685 686 688 689 689 694 685 689 685 682 673 667 672 678 679 671 672 652 642 647 651 -9999
-9999 926 937 991 974 980 991 990 1000 1037 1051 1033 1015 1008 1043 1069 1065 1064 1069 1085 1090 1100 1114 1209 1243 1264 1274 1268 1288 1316 1334 1343 1383 1396 1405 1390 1389 1376 1369 1388 1384 1344 1339 1383 1369 1364 1364 1343 1344 1352 1374 1381 1347 1360 1377 1378 1322 1285 1256 1259 1242 1209 1205 1198 1197 1195 1192 1182 1179 1181 1181 1179 1170 1164 1156 1151 1134 1126 1117 1105 1101 1094 1085 1067 1059 1018 984 951 958 943 929 913 904 897 877 870 851 839 828 824 816 812 807 811 818 803 781 750 739 729 721 719 718 713 710 705 699 701 701 699 697 695 695 698 692 690 686 688 688 684 685 686 688 690 691 694 697 696 688 686 676 677 676 672 667 663 658 655 650 657 -9999
-9999 976 986 1009 976 984 1003 1002 1022 1053 1063 1040 1023 1023 1082 1104 1092 1098 1104 1102 1110 1145 1152 1195 1216 1273 1292 1283 1294 1331 1356 1355 1391 1408 1414 1394 1401 1384 1396 1402 1400 1364 1354 1393 1372 1384 1382 1353 1353 1371 1385 1403 1378 1403 1397 1381 1315 1284 1265 1264 1217 1217 1211 1199 1199 1197 1194 1189 1186 1184 1182 1171 1167 1170 1163 1156 1143 1136 1119 1097 1053 1054 1046 1048 1037 1003 967 982 977 959 946 923 910 900 883 873 856 846 834 829 816 806 801 800 812 805 785 750 737 733 734 727 726 720 714 708 706 701 702 704 697 698 707 713 707 702 690 692 694 687 685 685 687 688 694 704 708 696 691 680 691 685 676 676 664 661 659 662 661 659 -9999
-9999 998 1004 1019 1002 1011 1025 1025 1062 1072 1079 1060 1056 1066 1139 1147 1144 1132 1138 1137 1157 1215 1231 1238 1242 1272 1293 1320 1328 1337 1347 1358 1389 1420 1429 1409 1418 1403 1425 1430 1435 1395 1368 1404 1396 1409 1387 1379 1378 1406 1416 1424 1392 1419 1424 1394 1307 1288 1279 1265 1231 1238 1226 1205 1203 1199 1195 1192 1189 1185 1183 1176 1173 1176 1171 1164 1149 1145 1122 1081 1042 1036 1014 1016 1014 976 981 994 987 963 951 934 920 896 891 879 860 856 838 830 813 806 800 797 818 807 786 744 739 738 736 729 725 719 715 711 706 701 699 699 701 711 738 731 713 710 715 720 713 715 698 691 694 700 696 694 689 689 680 676 674 675 682 677 671 667 660 658 656 658 -9999
-9999 1004 1018 1030 996 1009 1037 1029 1070 1085 1085 1069 1077 1088 1148 1159 1163 1152 1158 1145 1158 1217 1239 1261 1262 1276 1302 1324 1335 1352 1351 1364 1383 1408 1431 1414 1423 1407 1437 1442 1443 1408 1383 1417 1411 1405 1392 1396 1396 1438 1444 1433 1406 1428 1411 1380 1320 1331 1297 1270 1266 1260 1243 1212 1207 1206 1205 1201 1201 1189 1191 1189 1190 1186 1186 1180 1161 1141 1077 1081 1090 1085 1064 1052 1035 1030 1020 1011 1001 974 950 923 918 896 891 887 894 923 927 909 858 833 823 801 782 783 779 745 742 742 739 733 729 718 714 712 710 706 705 706 713 735 746 733 720 716 722 729 724 724 713 711 710 711 706 698 693 680 677 675 669 667 675 675 682 676 659 656 662 670 -9999
-9999 998 1011 1046 1016 1011 1029 1047 1065 1085 1096 1084 1106 1124 1176 1195 1197 1205 1205 1195 1208 1235 1256 1294 1302 1329 1327 1391 1393 1387 1389 1391 1409 1413 1433 1423 1455 1449 1469 1473 1461 1412 1427 1457 1440 1422 1406 1415 1410 1462 1463 1447 1422 1433 1401 1365 1352 1360 1344 1325 1292 1277 1258 1211 1211 1210 1211 1208 1208 1209 1207 1205 1200 1194 1183 1175 1155 1127 1098 1104 1097 1091 1069 1062 1058 1044 1035 1023 1010 988 969 935 943 911 891 889 901 930 946 937 913 871 850 832 779 782 784 758 755 746 742 735 729 721 720 728 729 727 735 749 755 757 751 742 734 726 721 726 728 731 728 708 714 723 722 705 702 715 703 696 685 676 671 669 663 666 663 666 668 667 -9999
-9999 1022 1032 1054 1029 1018 1037 1072 1064 1068 1101 1097 1113 1127 1171 1189 1221 1223 1235 1225 1249 1283 1280 1312 1323 1351 1363 1408 1431 1437 1432 1405 1432 1432 1444 1442 1479 1470 1492 1492 1468 1439 1448 1465 1451 1480 1449 1445 1454 1515 1519 1506 1474 1471 1421 1396 1427 1411 1386 1384 1352 1308 1270 1217 1220 1222 1224 1228 1239 1244 1240 1223 1217 1209 1190 1171 1122 1113 1128 1122 1107 1098 1083 1073 1067 1049 1050 1054 1051 1066 1034 978 980 960 922 900 894 911 939 946 940 891 845 841 787 791 787 763 759 751 747 734 728 723 722 724 732 727 741 752 747 745 743 740 736 722 722 723 716 712 720 707 708 719 730 716 729 727 710 698 684 676 663 669 672 673 666 668 672 667 -9999
-9999 1055 1072 1079 1066 1060 1065 1054 1109 1104 1105 1122 1136 1143 1191 1205 1222 1222 1233 1245 1258 1318 1354 1401 1402 1401 1408 1451 1465 1480 1481 1475 1474 1477 1482 1460 1500 1489 1498 1496 1466 1477 1472 1486 1467 1498 1473 1466 1470 1534 1548 1531 1519 1510 1445 1420 1447 1424 1381 1355 1307 1268 1246 1224 1228 1230 1234 1239 1250 1254 1249 1229 1221 1213 1189 1160 1132 1128 1134 1127 1120 1111 1093 1088 1082 1063 1067 1073 1086 1102 1063 1001 991 959 920 906 909 917 928 925 893 879 834 822 795 793 782 774 773 768 759 734 727 728 726 726 727 729 735 740 729 722 744 754 713 705 701 695 702 714 716 715 717 716 715 719 727 735 739 731 710 705 683 690 688 683 681 684 668 668 -9999
-9999 1053 1079 1094 1080 1085 1088 1061 1116 1122 1113 1129 1163 1163 1179 1200 1228 1239 1241 1249 1267 1331 1383 1431 1438 1438 1437 1482 1495 1515 1521 1516 1497 1497 1510 1503 1524 1537 1530 1510 1489 1552 1542 1552 1518 1531 1542 1532 1528 1590 1613 1613 1615 1571 1524 1510 1455 1438 1416 1379 1302 1271 1288 1259 1257 1249 1254 1266 1273 1271 1266 1246 1240 1225 1195 1182 1160 1160 1146 1143 1138 1138 1120 1112 1102 1081 1082 1105 1118 1127 1078 1013 1002 946 921 911 910 915 926 920 872 860 832 813 796 790 785 777 777 777 772 743 738 731 729 728 728 730 762 757 716 716 736 730 696 692 689 688 691 704 706 716 723 713 702 705 716 727 730 733 721 720 718 702 695 688 694 700 680 674 -9999
-9999 1069 1084 1107 1078 1085 1099 1110 1084 1106 1132 1137 1161 1172 1208 1218 1238 1258 1274 1281 1302 1359 1398 1455 1458 1469 1470 1514 1523 1539 1556 1557 1526 1517 1530 1523 1538 1554 1539 1514 1501 1569 1575 1587 1552 1554 1567 1561 1559 1611 1649 1667 1653 1599 1585 1558 1473 1454 1429 1374 1307 1327 1322 1280 1273 1257 1261 1283 1290 1282 1284 1267 1255 1240 1200 1180 1170 1169 1159 1158 1153 1151 1134 1123 1116 1109 1120 1135 1132 1108 1070 1032 1002 948 936 932 919 917 904 888 867 857 823 815 801 795 793 784 784 788 779 751 745 738 736 731 731 740 743 736 723 712 699 696 694 693 692 691 690 689 691 687 693 692 690 698 700 717 725 734 723 723 724 710 692 693 695 696 673 667 -9999
-9999 1065 1094 1106 1084 1100 1097 1114 1114 1096 1136 1146 1156 1173 1198 1203 1236 1257 1278 1298 1302 1357 1400 1474 1480 1492 1502 1517 1530 1553 1607 1621 1599 1605 1586 1581 1576 1583 1570 1557 1548 1608 1632 1624 1609 1605 1627 1626 1613 1701 1741 1781 1756 1715 1641 1586 1492 1500 1407 1393 1385 1376 1341 1329 1355 1318 1290 1295 1308 1304 1308 1285 1267 1241 1215 1191 1191 1190 1189 1179 1171 1168 1150 1137 1134 1128 1139 1137 1131 1093 1070 1014 979 953 945 940 930 926 897 889 863 851 826 819 802 798 794 789 790 788 773 752 747 742 738 731 731 732 746 754 737 713 708 705 711 707 705 707 716 700 696 686 686 689 689 704 701 691 697 709 712 711 720 712 697 695 678 668 650 646 -9999
-9999 1066 1103 1113 1100 1136 1137 1133 1175 1172 1141 1150 1191 1192 1229 1223 1227 1244 1262 1298 1319 1355 1374 1452 1466 1490 1490 1512 1529 1558 1606 1628 1613 1625 1617 1608 1583 1603 1610 1601 1581 1621 1649 1639 1649 1632 1660 1655 1654 1746 1777 1778 1761 1725 1621 1568 1513 1513 1435 1437 1412 1377 1341 1364 1401 1389 1340 1307 1318 1315 1320 1292 1270 1257 1261 1251 1263 1292 1315 1306 1243 1212 1178 1177 1174 1188 1170 1139 1109 1052 1045 1003 1001 1028 1025 998 934 929 915 898 864 849 832 826 820 811 807 803 794 769 760 755 753 745 741 742 750 763 809 812 778 760 750 761 747 724 721 726 738 716 706 688 689 691 694 706 705 684 681 681 690 694 697 695 685 687 657 647 643 635 -9999
-9999 1076 1115 1118 1111 1145 1154 1165 1189 1196 1156 1161 1214 1211 1243 1259 1281 1288 1283 1284 1292 1375 1404 1423 1440 1467 1486 1525 1550 1583 1604 1629 1648 1651 1656 1638 1644 1658 1666 1680 1632 1625 1653 1694 1714 1679 1676 1706 1721 1778 1770 1732 1714 1679 1589 1577 1564 1541 1517 1510 1454 1435 1403 1438 1438 1434 1403 1328 1331 1329 1326 1304 1282 1318 1325 1301 1315 1343 1367 1358 1308 1265 1197 1195 1203 1206 1189 1136 1101 1069 1053 1045 1058 1062 1054 1033 946 936 919 909 878 861 839 831 817 807 805 796 786 768 762 756 752 745 741 745 753 765 794 797 797 795 803 788 763 759 722 728 746 728 708 687 687 722 739 710 689 682 681 676 664 654 652 648 655 645 629 627 624 624 -9999
-9999 1111 1127 1126 1118 1156 1165 1172 1200 1213 1184 1156 1226 1234 1238 1249 1274 1298 1319 1325 1308 1351 1387 1421 1433 1436 1458 1521 1550 1564 1590 1619 1655 1662 1655 1639 1666 1690 1684 1695 1662 1652 1656 1724 1739 1703 1694 1743 1734 1776 1765 1724 1697 1682 1615 1617 1586 1564 1539 1523 1473 1451 1438 1475 1496 1498 1479 1370 1374 1366 1361 1402 1418 1441 1446 1427 1480 1502 1500 1477 1407 1354 1256 1254 1267 1255 1246 1153 1143 1160 1145 1160 1176 1107 1081 1028 981 962 939 925 929 915 869 867 832 809 798 788 782 766 761 755 752 745 744 744 752 781 793 798 806 804 834 807 787 770 727 736 748 731 708 687 687 720 729 698 673 669 672 668 656 651 633 629 633 627 626 624 624 623 -9999
-9999 1136 1170 1149 1145 1180 1187 1210 1244 1264 1223 1192 1198 1228 1258 1292 1355 1352 1338 1345 1349 1335 1336 1414 1425 1422 1458 1514 1508 1545 1561 1583 1638 1652 1659 1655 1675 1710 1724 1727 1704 1695 1706 1788 1796 1782 1762 1782 1785 1754 1761 1748 1716 1699 1656 1647 1600 1577 1550 1530 1493 1471 1493 1531 1538 1527 1508 1400 1399 1396 1385 1448 1485 1488 1486 1474 1553 1567 1546 1527 1442 1380 1294 1304 1285 1276 1248 1173 1176 1190 1179 1180 1188 1127 1088 1036 991 990 980 960 978 960 891 871 830 818 800 788 779 765 759 753 751 746 747 753 764 791 803 812 826 821 823 822 805 792 768 779 743 720 695 687 689 699 681 667 672 672 673 677 671 658 647 643 637 632 624 624 623 622 -9999
-9999 1161 1185 1159 1156 1182 1201 1217 1248 1276 1260 1242 1216 1211 1278 1314 1366 1386 1370 1357 1352 1354 1339 1379 1388 1410 1439 1485 1500 1526 1547 1591 1628 1637 1673 1674 1674 1712 1743 1744 1747 1723 1738 1787 1812 1808 1793 1801 1797 1759 1766 1764 1750 1747 1685 1647 1611 1597 1586 1594 1558 1544 1614 1620 1609 1581 1533 1466 1461 1450 1444 1504 1534 1559 1555 1574 1642 1651 1628 1604 1532 1485 1369 1345 1329 1311 1260 1235 1247 1249 1237 1203 1177 1114 1080 1051 1048 1043 1010 1014 1026 961 920 896 843 847 821 801 783 765 762 754 751 748 748 761 772 801 814 823 840 832 837 828 803 790 798 790 728 705 688 697 697 674 665 680 679 677 678 677 679 678 661 661 646 654 637 636 623 621 -9999
-9999 1222 1203 1188 1176 1192 1224 1251 1277 1273 1330 1327 1315 1275 1251 1277 1353 1382 1416 1423 1418 1403 1381 1368 1382 1407 1423 1458 1484 1528 1556 1584 1620 1636 1663 1690 1688 1714 1768 1781 1807 1793 1761 1809 1825 1832 1834 1817 1804 1777 1779 1786 1773 1749 1678 1645 1622 1613 1624 1618 1584 1594 1647 1646 1636 1606 1543 1509 1502 1476 1476 1553 1576 1586 1589 1632 1686 1691 1668 1638 1567 1522 1399 1375 1358 1323 1274 1302 1308 1286 1253 1202 1177 1112 1091 1063 1054 1043 1019 1034 1003 963 930 906 958 969 950 913 861 787 765 760 759 775 786 801 807 827 847 868 863 857 869 853 812 784 811 777 697 689 686 689 675 676 664 670 679 678 673 695 694 684 661 652 661 670 665 665 636 631 -9999
-9999 1234 1209 1201 1203 1194 1225 1267 1300 1290 1354 1351 1341 1293 1283 1278 1307 1347 1410 1434 1437 1410 1403 1381 1378 1402 1415 1441 1477 1532 1551 1571 1614 1637 1668 1692 1713 1736 1781 1796 1825 1811 1780 1821 1843 1874 1891 1858 1831 1816 1793 1745 1738 1706 1661 1655 1640 1651 1624 1615 1662 1685 1690 1683 1672 1641 1596 1605 1610 1550 1548 1622 1641 1652 1691 1731 1772 1769 1739 1709 1632 1593 1472 1466 1404 1379 1389 1407 1397 1326 1291 1205 1173 1130 1106 1068 1057 1046 1026 1028 986 975 936 928 974 987 974 956 916 834 784 774 789 809 819 822 825 845 864 882 869 870 880 868 817 781 773 742 695 692 692 693 679 670 664 666 669 673 671 704 707 681 653 662 675 677 657 652 634 635 -9999
-9999 1247 1227 1244 1254 1251 1257 1287 1310 1324 1370 1394 1358 1335 1331 1348 1315 1347 1423 1451 1470 1439 1442 1401 1402 1442 1480 1488 1472 1507 1535 1552 1590 1613 1677 1702 1747 1760 1806 1816 1839 1813 1791 1813 1833 1869 1896 1875 1860 1808 1783 1721 1707 1685 1659 1656 1669 1663 1635 1638 1701 1710 1705 1689 1674 1640 1604 1644 1651 1592 1581 1660 1666 1681 1744 1789 1814 1809 1770 1740 1661 1615 1527 1497 1434 1425 1416 1415 1415 1349 1321 1234 1192 1125 1101 1069 1061 1050 1026 1024 1004 987 964 958 998 1020 1002 992 972 888 819 833 853 867 869 876 892 913 919 924 896 900 898 880 800 770 727 715 699 703 708 711 693 672 663 664 672 686 670 693 697 675 682 690 675 665 661 660 645 635 -9999
-9999 1258 1242 1264 1276 1269 1279 1303 1313 1346 1378 1412 1363 1371 1347 1370 1343 1373 1441 1452 1477 1454 1451 1416 1422 1439 1481 1529 1498 1513 1530 1545 1570 1595 1663 1711 1795 1799 1833 1854 1865 1851 1844 1825 1847 1898 1905 1892 1854 1814 1802 1714 1709 1710 1711 1693 1683 1667 1669 1710 1750 1749 1717 1699 1688 1643 1653 1720 1731 1682 1692 1713 1706 1782 1842 1867 1882 1870 1831 1804 1703 1642 1614 1536 1481 1460 1439 1450 1444 1363 1337 1267 1223 1140 1110 1079 1075 1069 1037 1040 1017 1001 984 986 1029 1037 1022 998 979 879 825 855 872 883 886 911 926 942 951 951 928 922 911 893 801 771 710 702 705 714 718 714 688 665 662 668 677 715 682 689 695 670 679 702 678 660 664 668 655 640 -9999
-9999 1269 1254 1290 1302 1339 1337 1350 1350 1372 1401 1428 1414 1442 1403 1395 1382 1373 1429 1462 1493 1479 1457 1438 1450 1452 1499 1555 1524 1536 1533 1542 1571 1586 1657 1695 1766 1769 1782 1810 1860 1870 1857 1836 1848 1911 1911 1898 1853 1843 1815 1716 1706 1706 1715 1713 1700 1685 1703 1741 1768 1765 1718 1704 1695 1668 1679 1751 1767 1746 1744 1752 1741 1815 1872 1898 1909 1898 1851 1822 1751 1682 1635 1601 1558 1516 1515 1504 1475 1411 1373 1322 1305 1222 1199 1153 1133 1122 1081 1070 1048 1044 1038 1068 1082 1066 1030 1007 972 873 847 876 891 917 937 978 991 1013 1021 1002 983 978 916 875 786 769 724 713 713 724 736 697 666 665 661 671 683 734 698 682 685 662 663 679 675 660 653 648 636 636 -9999
-9999 1282 1270 1284 1310 1362 1376 1376 1383 1396 1421 1431 1459 1462 1425 1415 1400 1384 1444 1479 1497 1476 1458 1490 1495 1478 1519 1570 1548 1536 1545 1558 1579 1591 1642 1673 1699 1715 1734 1748 1825 1869 1878 1881 1901 1901 1904 1897 1888 1871 1824 1762 1723 1716 1714 1713 1709 1704 1757 1801 1810 1794 1726 1723 1720 1712 1716 1794 1820 1838 1836 1806 1801 1840 1904 1925 1938 1925 1876 1843 1782 1715 1670 1649 1591 1565 1570 1539 1514 1474 1429 1352 1331 1276 1244 1185 1169 1153 1109 1093 1079 1068 1083 1113 1098 1088 1045 1020 980 906 862 877 900 949 970 995 1005 1035 1042 1016 1004 974 877 843 785 767 731 720 704 718 725 683 663 661 665 673 694 718 689 657 668 664 649 650 655 677 668 655 630 626 -9999
-9999 1293 1296 1292 1313 1382 1414 1437 1452 1502 1483 1454 1498 1492 1447 1438 1406 1396 1460 1491 1504 1499 1482 1506 1514 1491 1527 1582 1569 1539 1554 1568 1582 1589 1633 1649 1691 1702 1733 1751 1829 1874 1881 1899 1905 1898 1896 1913 1909 1881 1841 1765 1730 1714 1717 1717 1708 1707 1784 1825 1826 1807 1743 1743 1732 1727 1735 1807 1838 1854 1862 1836 1836 1860 1953 2001 2000 1986 1930 1911 1857 1782 1711 1693 1658 1628 1617 1567 1564 1563 1521 1419 1396 1340 1304 1242 1219 1201 1153 1143 1142 1132 1137 1134 1127 1108 1060 1014 959 866 845 890 920 964 982 1008 1021 1051 1060 1049 985 931 877 827 790 774 732 713 692 700 710 671 665 667 678 685 702 692 680 656 657 656 650 651 648 674 679 670 643 628 -9999
-9999 1298 1316 1306 1311 1380 1427 1464 1478 1537 1504 1501 1535 1519 1477 1499 1455 1426 1452 1482 1493 1505 1504 1522 1528 1527 1531 1592 1591 1588 1603 1617 1613 1605 1651 1678 1713 1739 1772 1796 1853 1869 1869 1853 1855 1868 1872 1901 1883 1880 1860 1808 1788 1729 1721 1721 1726 1752 1858 1865 1871 1851 1777 1766 1746 1750 1764 1836 1869 1876 1873 1853 1871 1870 1963 2031 2033 2019 1961 1946 1900 1847 1740 1718 1670 1653 1597 1583 1595 1564 1525 1463 1433 1365 1330 1268 1248 1196 1179 1172 1162 1154 1150 1149 1131 1105 1027 975 873 849 838 891 910 944 964 984 1002 1035 1047 1013 964 923 889 872 812 794 734 701 680 676 667 669 684 704 715 699 667 665 684 659 649 649 650 648 654 679 704 695 665 638 -9999
-9999 1316 1338 1344 1320 1374 1423 1498 1500 1563 1535 1515 1546 1526 1484 1511 1459 1439 1472 1463 1478 1497 1517 1533 1538 1548 1548 1580 1601 1617 1627 1640 1645 1634 1633 1649 1712 1726 1786 1813 1832 1841 1860 1828 1833 1847 1842 1875 1859 1858 1834 1785 1756 1730 1724 1723 1745 1765 1875 1884 1886 1872 1830 1807 1779 1797 1816 1933 1977 1990 1961 1886 1930 1944 1990 2080 2086 2078 2044 2020 1948 1851 1783 1747 1701 1654 1664 1656 1663 1627 1601 1536 1501 1418 1383 1327 1297 1247 1231 1214 1191 1182 1173 1167 1126 1070 955 907 849 838 835 851 893 929 942 965 978 1004 1016 998 942 913 895 870 820 794 736 702 678 674 670 691 722 733 736 671 653 682 708 664 653 649 649 648 660 684 733 710 649 628 -9999
-9999 1359 1391 1414 1384 1356 1385 1476 1532 1576 1550 1539 1567 1557 1512 1525 1479 1462 1495 1473 1492 1497 1512 1538 1547 1568 1564 1556 1575 1611 1629 1665 1665 1654 1649 1652 1678 1702 1754 1769 1787 1809 1845 1824 1815 1814 1817 1817 1835 1827 1821 1771 1747 1730 1728 1732 1751 1770 1880 1887 1893 1885 1842 1820 1801 1821 1835 1938 1978 2000 1976 1912 1951 1999 2031 2107 2118 2113 2077 2045 1924 1842 1786 1758 1686 1670 1717 1704 1706 1672 1644 1572 1524 1451 1417 1350 1323 1272 1247 1230 1205 1197 1181 1170 1093 1040 928 885 846 837 834 845 864 895 905 939 924 911 931 930 899 880 883 873 831 793 716 690 673 669 695 755 777 724 676 648 654 692 684 668 663 650 646 657 675 696 719 686 632 628 -9999
-9999 1384 1420 1445 1422 1371 1390 1461 1516 1577 1562 1560 1577 1555 1530 1541 1498 1475 1499 1483 1493 1495 1504 1519 1541 1563 1567 1572 1579 1607 1628 1647 1651 1652 1665 1665 1709 1728 1782 1798 1790 1800 1841 1818 1795 1790 1798 1807 1828 1823 1828 1790 1775 1738 1743 1750 1761 1798 1870 1885 1907 1906 1888 1872 1858 1859 1868 1919 1928 1942 1937 1930 1962 2099 2117 2156 2163 2163 2131 2080 1927 1876 1799 1760 1735 1740 1801 1795 1796 1764 1728 1631 1596 1510 1469 1403 1370 1318 1295 1276 1232 1220 1190 1178 1087 1046 924 880 841 836 835 849 863 889 905 920 893 884 900 906 885 867 870 876 846 812 723 689 670 669 709 758 768 691 657 649 656 673 672 663 655 649 652 668 675 683 703 667 643 629 -9999
-9999 1388 1429 1507 1474 1403 1415 1472 1516 1556 1589 1603 1596 1564 1556 1560 1492 1491 1498 1499 1506 1503 1504 1510 1515 1541 1547 1572 1588 1606 1620 1646 1650 1647 1654 1665 1719 1752 1815 1830 1849 1821 1830 1812 1801 1772 1774 1808 1819 1822 1837 1826 1809 1758 1746 1749 1765 1791 1861 1882 1912 1919 1920 1924 1905 1910 1920 1949 1957 1957 1940 1931 1966 2133 2152 2133 2129 2136 2127 2070 1958 1901 1811 1780 1774 1786 1832 1856 1851 1810 1765 1688 1633 1532 1482 1419 1389 1333 1317 1289 1246 1234 1207 1207 1159 1085 961 923 858 835 828 835 841 845 850 842 842 875 892 873 859 848 840 852 864 827 725 688 678 694 742 731 718 650 646 646 643 651 654 647 649 658 668 685 705 680 666 673 659 631 -9999
-9999 1373 1411 1508 1509 1426 1418 1471 1508 1544 1575 1613 1611 1570 1575 1567 1485 1486 1493 1495 1509 1505 1509 1515 1515 1526 1532 1571 1582 1601 1616 1634 1638 1641 1644 1659 1683 1718 1820 1842 1866 1867 1826 1800 1779 1757 1757 1809 1823 1797 1819 1854 1874 1818 1824 1799 1773 1788 1846 1877 1928 1943 1966 1986 2020 2018 2017 2043 2032 2001 1973 1947 1973 2082 2124 2033 2020 2027 2095 2091 2002 1937 1860 1833 1860 1869 1897 1931 1952 1900 1845 1732 1658 1553 1510 1437 1400 1350 1321 1296 1264 1243 1215 1210 1145 1069 948 914 845 834 826 828 828 833 842 834 833 871 884 870 855 839 831 832 835 812 717 693 690 725 771 745 718 655 648 648 651 647 648 647 650 670 674 684 705 686 684 705 650 628 -9999
-9999 1372 1380 1458 1512 1480 1457 1467 1499 1534 1574 1617 1628 1608 1599 1555 1498 1490 1479 1475 1487 1492 1498 1514 1510 1518 1525 1553 1573 1590 1605 1612 1631 1642 1640 1646 1673 1710 1810 1841 1855 1867 1828 1821 1809 1772 1751 1797 1803 1790 1820 1860 1889 1857 1867 1842 1802 1801 1840 1869 1930 1948 1978 1999 2048 2060 2067 2099 2085 2027 1994 1968 1989 2111 2089 2010 1999 2011 2088 2061 2020 1959 1863 1853 1889 1915 1949 1954 1958 1927 1861 1773 1728 1612 1563 1471 1434 1369 1345 1330 1290 1274 1164 1136 1069 1013 898 868 839 831 824 815 818 815 824 820 818 846 860 858 846 840 808 803 796 814 804 771 706 722 771 769 744 669 657 649 652 675 665 650 648 672 674 678 710 718 697 689 651 636 -9999
-9999 1403 1385 1444 1498 1502 1475 1483 1493 1533 1575 1616 1638 1628 1573 1531 1497 1486 1480 1472 1478 1480 1489 1507 1500 1507 1518 1550 1568 1579 1580 1600 1615 1627 1649 1660 1693 1735 1810 1833 1831 1850 1866 1852 1836 1789 1740 1752 1756 1793 1814 1886 1902 1886 1894 1893 1899 1887 1832 1831 1939 1982 2010 2030 2092 2125 2159 2215 2162 2049 2029 2030 2041 2024 2001 1988 1958 1967 1964 1941 1955 1937 1853 1866 1888 1924 1951 1967 1960 1960 1897 1790 1732 1615 1564 1480 1450 1375 1351 1336 1290 1246 1119 1083 1010 969 883 862 840 832 823 808 807 805 815 819 812 816 829 835 840 834 805 795 807 844 850 808 714 712 782 785 751 694 675 671 686 710 675 651 653 659 659 680 722 694 646 636 635 635 -9999
-9999 1486 1448 1448 1506 1559 1541 1510 1524 1542 1578 1617 1603 1574 1527 1509 1484 1482 1473 1474 1474 1476 1479 1498 1496 1521 1527 1549 1564 1564 1569 1600 1612 1628 1642 1653 1701 1735 1805 1825 1811 1835 1849 1836 1817 1779 1747 1711 1729 1785 1808 1872 1883 1884 1899 1920 1933 1914 1854 1837 1915 1977 2022 2050 2125 2173 2212 2230 2169 2056 2059 2048 2029 1981 1967 1998 1943 1911 1847 1842 1854 1827 1799 1807 1826 1862 1862 1884 1905 1917 1891 1801 1746 1640 1588 1506 1464 1387 1355 1311 1229 1174 1069 1022 942 921 891 876 857 846 834 814 803 785 788 796 794 789 787 800 812 826 808 787 802 871 904 833 731 722 777 778 752 727 718 721 734 713 668 664 666 652 658 685 681 654 634 633 638 642 -9999
-9999 1503 1459 1453 1502 1592 1566 1512 1520 1539 1572 1596 1569 1535 1510 1498 1481 1477 1472 1473 1474 1477 1483 1489 1495 1511 1512 1523 1533 1557 1558 1591 1605 1610 1626 1647 1716 1739 1779 1783 1790 1805 1809 1785 1770 1752 1726 1696 1702 1768 1788 1835 1857 1898 1931 1987 2002 1988 1915 1878 1884 1922 2016 2051 2172 2190 2167 2209 2179 2133 2118 2043 2021 1956 1940 1937 1902 1872 1816 1786 1757 1749 1758 1763 1786 1818 1795 1814 1843 1860 1841 1778 1732 1634 1589 1525 1487 1378 1329 1269 1177 1135 1037 995 935 918 892 880 857 848 835 816 804 789 783 774 776 778 779 787 796 813 819 796 788 836 917 871 743 730 773 761 749 749 761 756 707 653 655 672 661 651 654 667 654 637 633 633 653 656 -9999
1609 1561 1523 1459 1468 1580 1567 1515 1506 1551 1564 1566 1556 1532 1499 1495 1477 1471 1472 1473 1475 1477 1484 1492 1493 1503 1509 1527 1533 1544 1551 1580 1587 1601 1621 1638 1690 1706 1752 1755 1765 1778 1788 1762 1759 1759 1738 1692 1681 1760 1800 1844 1866 1926 1967 2018 2026 2020 1952 1928 1903 1913 2000 2033 2161 2190 2198 2194 2168 2189 2146 2047 1998 1916 1890 1863 1854 1796 1774 1751 1709 1695 1688 1685 1738 1764 1698 1678 1759 1772 1738 1701 1671 1600 1566 1524 1507 1409 1345 1188 1130 1080 1015 986 948 929 899 886 863 852 828 822 811 795 790 776 762 756 761 773 783 834 842 815 782 800 898 884 777 752 789 771 747 752 764 742 687 651 660 667 660 651 653 670 667 655 633 633 636 637 -9999
1638 1591 1555 1474 1463 1549 1553 1521 1511 1539 1528 1548 1529 1512 1487 1484 1473 1472 1473 1472 1474 1476 1478 1483 1484 1493 1500 1513 1512 1524 1532 1555 1561 1589 1604 1611 1644 1682 1713 1705 1728 1731 1735 1727 1694 1703 1691 1658 1651 1710 1750 1812 1844 1920 1969 2063 2093 2112 2056 2037 1994 1984 1987 2018 2121 2159 2174 2166 2159 2174 2155 2050 2008 1913 1878 1827 1813 1773 1762 1745 1706 1685 1664 1663 1705 1716 1649 1630 1703 1728 1698 1656 1628 1574 1555 1528 1514 1419 1350 1205 1147 1082 1017 992 951 933 900 886 858 847 826 817 812 801 786 788 772 754 754 772 771 823 833 848 809 780 837 875 854 835 812 772 741 735 734 734 679 653 660 669 657 657 658 706 722 715 642 633 635 639 -9999
1686 1637 1591 1491 1472 1502 1513 1532 1537 1528 1514 1549 1544 1531 1487 1482 1474 1472 1473 1474 1474 1474 1480 1480 1481 1489 1499 1504 1502 1534 1538 1551 1565 1581 1590 1598 1655 1683 1685 1683 1705 1709 1710 1711 1677 1680 1669 1635 1642 1681 1707 1812 1866 1951 1972 2050 2093 2114 2074 2027 2000 2013 2032 2024 2051 2063 2108 2130 2122 2128 2112 2033 1993 1928 1901 1828 1792 1753 1740 1727 1699 1676 1656 1650 1625 1646 1623 1594 1591 1622 1612 1573 1550 1508 1511 1546 1519 1385 1319 1195 1133 1101 1057 1033 978 970 939 913 864 839 815 809 806 799 784 786 777 748 746 772 763 817 819 822 818 782 797 846 854 845 803 770 744 739 742 716 684 653 661 673 664 659 672 720 736 711 640 636 636 635 -9999
1708 1650 1600 1530 1508 1481 1471 1486 1518 1500 1492 1522 1540 1545 1499 1492 1481 1475 1471 1473 1474 1475 1475 1479 1483 1489 1492 1497 1498 1502 1516 1539 1535 1549 1563 1600 1656 1654 1641 1646 1667 1679 1662 1672 1665 1646 1632 1617 1648 1654 1698 1833 1897 1975 1967 2011 2053 2081 2042 1990 1980 2002 2016 2011 2034 2030 2062 2079 2072 2075 2076 2065 2030 1973 1947 1853 1808 1758 1733 1718 1692 1668 1649 1640 1608 1631 1651 1558 1556 1592 1582 1534 1513 1475 1476 1508 1484 1402 1333 1214 1169 1138 1108 1084 1041 1034 988 957 894 858 812 795 787 784 781 769 764 746 743 740 739 793 794 785 786 777 751 764 841 851 810 775 735 735 744 742 719 682 668 674 677 658 671 708 704 684 646 647 667 668 -9999
1701 1647 1599 1537 1529 1481 1484 1481 1495 1489 1486 1508 1526 1539 1515 1503 1483 1475 1472 1471 1473 1475 1476 1477 1482 1492 1488 1494 1493 1498 1508 1521 1522 1544 1562 1603 1643 1634 1626 1631 1659 1668 1652 1656 1661 1652 1624 1616 1636 1639 1683 1802 1868 1919 1878 1917 1943 1977 1972 1935 1945 1968 2011 2020 2032 1988 1968 1980 1970 2021 2068 2094 2067 1984 1963 1873 1827 1759 1724 1706 1667 1643 1604 1563 1561 1581 1565 1538 1508 1527 1519 1471 1450 1424 1396 1375 1355 1291 1269 1300 1215 1186 1156 1141 1117 1106 1029 992 910 877 817 791 779 783 780 770 761 745 740 737 737 789 784 775 775 763 744 745 800 826 829 786 730 729 739 758 744 711 686 665 673 655 651 669 680 688 642 645 656 654 -9999
1667 1628 1581 1550 1547 1495 1497 1483 1478 1487 1483 1494 1522 1562 1540 1518 1494 1484 1474 1473 1474 1473 1475 1477 1479 1483 1483 1489 1488 1483 1487 1488 1502 1546 1589 1623 1640 1627 1611 1623 1650 1655 1641 1640 1650 1646 1638 1600 1622 1629 1669 1786 1839 1864 1827 1880 1896 1911 1929 1903 1920 1947 1999 2031 2036 1992 1926 1932 1931 2000 2047 2068 2052 1991 1971 1892 1850 1769 1721 1684 1642 1624 1592 1547 1521 1547 1521 1499 1458 1465 1474 1438 1401 1396 1373 1314 1283 1227 1216 1275 1295 1302 1289 1260 1264 1237 1153 1109 1009 972 828 795 780 767 764 763 756 744 742 731 730 756 747 744 773 756 738 739 736 751 793 779 718 715 731 756 747 726 717 665 670 681 669 668 666 661 653 660 674 652 -9999
1636 1602 1564 1551 1550 1502 1502 1492 1484 1486 1486 1498 1544 1590 1578 1556 1510 1492 1480 1476 1473 1472 1475 1477 1478 1482 1485 1499 1487 1482 1482 1480 1496 1532 1564 1591 1630 1617 1603 1596 1606 1628 1624 1622 1634 1632 1616 1578 1575 1638 1678 1726 1753 1757 1767 1806 1817 1828 1850 1833 1870 1912 1977 1982 1921 1891 1851 1860 1897 1959 1981 1999 2020 2017 1984 1905 1888 1798 1741 1691 1591 1553 1511 1501 1461 1472 1439 1414 1360 1406 1407 1380 1317 1348 1345 1284 1239 1175 1156 1202 1237 1261 1311 1283 1251 1221 1165 1123 1018 967 838 802 786 762 757 755 751 740 738 729 729 734 727 727 754 751 737 733 720 722 747 750 707 709 718 739 738 728 719 667 665 685 675 692 690 683 679 684 694 692 -9999
1591 1576 1561 1581 1568 1547 1541 1504 1498 1495 1497 1521 1560 1599 1621 1616 1520 1496 1496 1484 1483 1482 1481 1479 1482 1479 1490 1510 1496 1470 1474 1469 1486 1527 1543 1550 1603 1596 1594 1586 1590 1623 1620 1604 1628 1628 1614 1577 1569 1626 1666 1707 1716 1721 1748 1778 1798 1818 1811 1813 1870 1912 1958 1951 1885 1855 1814 1832 1866 1913 1934 1972 2003 1988 1968 1913 1896 1799 1745 1692 1579 1536 1473 1452 1415 1417 1395 1376 1314 1296 1308 1262 1200 1275 1304 1250 1207 1127 1107 1072 1076 1082 1125 1136 1112 1084 1055 1053 995 936 848 811 785 757 751 747 745 736 732 726 723 721 722 721 718 723 733 733 707 705 705 706 700 700 701 717 720 728 729 668 664 682 686 696 695 693 697 703 706 702 -9999
1588 1585 1580 1594 1588 1564 1551 1512 1497 1483 1490 1487 1523 1560 1601 1615 1541 1505 1497 1489 1486 1485 1482 1479 1483 1484 1498 1514 1520 1460 1440 1454 1472 1498 1514 1534 1571 1575 1568 1560 1580 1620 1634 1599 1588 1589 1584 1551 1558 1610 1635 1672 1673 1675 1707 1734 1762 1767 1805 1838 1920 1924 1899 1885 1847 1828 1761 1782 1797 1804 1825 1895 1928 1926 1924 1822 1851 1786 1723 1674 1570 1530 1449 1417 1375 1365 1357 1342 1266 1240 1220 1201 1159 1231 1280 1237 1191 1115 1089 1036 1019 1032 1042 1060 1040 1020 999 1002 991 968 883 838 797 760 751 748 744 736 733 724 720 720 720 720 715 715 728 724 702 700 701 701 698 698 698 711 713 711 713 692 678 671 685 700 711 714 720 720 712 704 -9999
1643 1644 1630 1588 1580 1512 1493 1455 1464 1473 1460 1490 1523 1545 1602 1627 1605 1566 1507 1502 1493 1487 1483 1480 1483 1498 1510 1531 1533 1457 1434 1454 1466 1495 1519 1534 1542 1546 1551 1550 1572 1603 1636 1613 1569 1567 1565 1545 1552 1582 1593 1628 1635 1666 1685 1712 1736 1753 1813 1852 1911 1890 1871 1843 1792 1779 1736 1757 1769 1763 1785 1855 1880 1892 1894 1830 1852 1766 1705 1645 1554 1512 1437 1403 1339 1316 1290 1256 1189 1162 1136 1099 1058 1110 1132 1151 1140 1069 1036 992 956 930 957 957 929 914 905 908 917 913 853 835 811 773 759 744 738 736 731 724 722 716 715 715 713 711 707 706 701 698 699 702 699 697 699 705 703 708 714 709 694 668 680 695 709 722 722 717 713 707 -9999
1657 1661 1628 1609 1576 1497 1473 1444 1441 1470 1450 1499 1528 1573 1595 1611 1608 1572 1525 1517 1497 1488 1487 1488 1504 1521 1506 1454 1452 1409 1421 1446 1442 1458 1485 1500 1487 1489 1504 1502 1537 1554 1580 1574 1544 1531 1531 1536 1548 1572 1582 1607 1625 1657 1669 1713 1749 1811 1835 1855 1838 1827 1787 1713 1674 1679 1679 1696 1730 1730 1751 1808 1827 1851 1852 1846 1825 1735 1688 1583 1542 1502 1420 1384 1317 1285 1244 1196 1150 1139 1094 1066 1042 1062 1065 1081 1077 1017 1004 974 947 891 902 902 881 872 866 871 883 880 823 800 770 761 754 742 740 741 739 730 729 714 715 710 709 709 710 709 705 704 705 709 709 708 713 717 714 703 707 709 709 709 697 672 678 715 721 728 712 712 -9999
1630 1625 1623 1614 1574 1504 1490 1442 1425 1438 1434 1477 1492 1563 1575 1589 1617 1584 1533 1528 1504 1496 1492 1498 1503 1498 1479 1430 1412 1403 1423 1443 1438 1431 1460 1477 1465 1481 1483 1480 1525 1549 1569 1550 1526 1522 1533 1542 1554 1575 1582 1604 1620 1652 1665 1736 1782 1827 1838 1827 1797 1793 1741 1712 1627 1636 1652 1671 1664 1675 1685 1703 1718 1736 1738 1750 1725 1662 1621 1535 1492 1461 1401 1348 1279 1230 1181 1158 1103 1077 1053 1033 1010 980 969 956 942 906 899 925 922 857 841 830 824 817 814 806 816 810 800 774 742 734 730 752 788 821 779 778 772 716 711 708 709 711 708 707 706 707 719 728 725 725 723 719 715 709 711 711 713 712 693 672 677 711 703 708 715 704 -9999
1614 1598 1597 1592 1582 1518 1506 1457 1417 1408 1456 1491 1511 1535 1520 1537 1558 1534 1508 1557 1545 1536 1531 1537 1539 1508 1480 1407 1387 1378 1377 1392 1409 1398 1416 1433 1445 1475 1469 1476 1521 1525 1539 1530 1507 1515 1533 1544 1553 1564 1571 1589 1588 1660 1717 1781 1782 1783 1810 1790 1752 1754 1696 1677 1601 1602 1616 1641 1633 1644 1650 1659 1669 1674 1673 1683 1667 1615 1581 1501 1462 1428 1376 1343 1260 1216 1162 1140 1091 1071 1032 1020 1003 973 957 928 914 879 872 897 897 846 825 816 804 805 796 787 779 780 791 773 735 729 727 768 802 831 836 841 816 740 712 710 710 714 708 706 723 745 740 730 732 736 737 733 732 734 734 725 724 700 687 675 688 705 694 694 695 691 -9999
1599 1588 1565 1563 1566 1542 1524 1452 1405 1424 1477 1523 1527 1528 1513 1508 1536 1507 1495 1543 1594 1585 1567 1573 1561 1525 1494 1419 1391 1376 1369 1374 1384 1377 1403 1424 1444 1468 1467 1474 1506 1508 1506 1504 1506 1515 1530 1542 1548 1556 1562 1578 1578 1676 1726 1745 1743 1762 1781 1757 1701 1707 1636 1568 1543 1533 1572 1587 1570 1581 1571 1570 1578 1578 1578 1576 1561 1521 1501 1438 1402 1372 1309 1286 1237 1199 1116 1090 1058 1038 999 988 977 952 944 918 903 875 860 848 857 834 801 797 788 783 777 770 768 764 769 763 731 726 724 770 798 817 813 831 811 756 720 707 708 710 710 707 732 756 742 731 730 732 737 743 745 747 739 725 720 691 682 680 699 702 690 689 682 682 -9999
1583 1580 1551 1525 1497 1507 1511 1435 1380 1436 1475 1516 1519 1469 1481 1483 1476 1449 1440 1483 1575 1566 1550 1543 1502 1511 1506 1467 1438 1376 1353 1344 1350 1387 1412 1398 1437 1465 1466 1459 1475 1480 1498 1502 1506 1513 1523 1536 1545 1548 1556 1571 1580 1683 1711 1739 1755 1750 1757 1705 1667 1658 1601 1535 1502 1510 1555 1551 1534 1546 1537 1532 1538 1533 1535 1530 1513 1477 1460 1400 1371 1342 1282 1256 1213 1187 1097 1067 1035 1019 987 973 964 941 932 913 899 868 853 840 838 818 795 786 781 777 767 763 754 748 739 733 721 722 728 769 768 774 774 780 774 742 730 723 725 722 744 754 759 756 746 742 730 731 745 747 745 729 721 717 708 699 697 698 693 690 687 682 682 682 -9999
1571 1577 1542 1519 1484 1462 1475 1422 1375 1411 1450 1472 1481 1459 1466 1470 1442 1437 1428 1454 1534 1529 1517 1505 1464 1482 1498 1485 1470 1422 1393 1349 1342 1367 1397 1392 1430 1460 1482 1467 1470 1480 1507 1519 1510 1515 1522 1527 1537 1546 1551 1589 1625 1690 1725 1759 1736 1732 1719 1665 1538 1518 1483 1481 1462 1466 1492 1461 1468 1460 1469 1469 1464 1454 1454 1442 1428 1398 1379 1340 1310 1281 1218 1195 1149 1131 1090 1056 1009 995 968 949 936 927 916 897 882 850 845 833 820 802 790 784 780 776 763 759 753 747 748 747 722 719 720 740 744 760 760 754 749 733 726 735 735 743 766 769 759 749 736 739 734 735 730 727 723 710 708 703 698 706 698 691 688 688 689 689 682 682 -9999
1550 1532 1507 1493 1488 1433 1412 1386 1365 1356 1374 1334 1351 1393 1393 1407 1400 1408 1407 1403 1466 1468 1464 1444 1404 1430 1479 1456 1439 1445 1454 1392 1351 1340 1367 1400 1448 1473 1483 1464 1469 1483 1520 1523 1514 1515 1520 1528 1533 1546 1551 1619 1653 1718 1748 1722 1712 1692 1685 1666 1489 1452 1434 1458 1438 1444 1456 1428 1439 1434 1443 1443 1433 1420 1416 1403 1391 1360 1344 1295 1273 1250 1192 1168 1119 1100 1076 1057 1011 993 959 943 929 912 908 890 875 841 832 811 805 797 788 780 771 769 764 761 766 762 760 757 724 718 718 716 729 747 748 741 738 732 732 744 742 741 753 758 744 738 735 737 723 720 709 706 704 704 702 702 700 695 689 687 687 689 688 689 687 690 -9999
1575 1539 1482 1467 1462 1436 1415 1369 1361 1336 1333 1309 1306 1364 1355 1360 1390 1399 1395 1389 1448 1443 1440 1425 1391 1415 1449 1424 1406 1434 1443 1388 1352 1333 1351 1404 1439 1438 1437 1454 1487 1491 1511 1513 1507 1508 1515 1517 1523 1554 1582 1639 1673 1709 1687 1657 1624 1565 1559 1559 1488 1439 1409 1409 1403 1412 1418 1388 1371 1384 1384 1399 1379 1358 1356 1337 1327 1298 1276 1239 1212 1189 1147 1118 1077 1054 1021 1038 1003 993 949 937 925 897 893 883 870 841 830 814 805 793 787 778 767 767 764 771 772 759 757 756 736 719 718 716 720 744 747 742 738 734 735 735 736 733 745 750 740 738 736 734 718 709 705 708 713 715 712 707 695 692 688 687 688 689 688 687 694 690 -9999
1591 1556 1503 1471 1456 1423 1404 1399 1384 1386 1378 1350 1312 1285 1289 1302 1370 1375 1387 1365 1408 1416 1415 1406 1354 1364 1404 1402 1388 1441 1432 1370 1348 1327 1339 1399 1415 1413 1431 1462 1478 1481 1499 1505 1505 1508 1510 1517 1527 1585 1615 1665 1698 1671 1657 1599 1566 1516 1497 1491 1438 1406 1384 1380 1392 1396 1405 1366 1359 1364 1367 1375 1358 1332 1326 1303 1294 1268 1252 1206 1185 1163 1117 1092 1061 1041 1001 998 958 948 934 923 910 882 864 859 854 845 838 822 812 785 784 776 767 763 757 754 752 745 746 752 734 723 721 718 717 740 750 755 750 744 744 732 720 720 743 741 740 737 718 711 714 711 715 719 716 714 713 709 698 691 688 688 688 689 688 688 689 689 -9999
1563 1545 1496 1473 1455 1446 1428 1424 1418 1415 1429 1396 1355 1287 1267 1295 1362 1353 1373 1349 1393 1399 1410 1408 1345 1349 1358 1380 1391 1433 1424 1344 1324 1323 1340 1373 1407 1430 1461 1461 1452 1446 1465 1482 1501 1506 1512 1528 1576 1627 1635 1636 1628 1598 1574 1536 1514 1444 1399 1382 1350 1344 1352 1353 1366 1369 1367 1339 1333 1337 1338 1319 1312 1287 1271 1250 1243 1237 1222 1182 1164 1139 1092 1073 1044 1029 989 980 950 936 925 914 904 886 875 848 842 831 826 815 803 792 781 773 765 761 754 752 748 743 742 742 732 731 725 719 716 732 751 772 760 747 742 719 712 719 740 736 734 730 723 723 720 718 719 718 717 711 707 700 693 691 690 690 690 703 695 688 688 689 -9999
1578 1573 1560 1548 1515 1495 1473 1499 1485 1491 1468 1374 1357 1312 1277 1323 1344 1335 1341 1328 1371 1379 1388 1398 1334 1339 1392 1405 1403 1421 1423 1354 1322 1329 1366 1384 1399 1439 1447 1447 1441 1447 1466 1486 1509 1509 1517 1550 1634 1636 1633 1609 1587 1555 1541 1515 1503 1433 1371 1333 1330 1332 1344 1347 1355 1357 1347 1330 1326 1325 1311 1304 1298 1259 1242 1225 1221 1186 1170 1146 1131 1089 1070 1045 1020 998 965 955 932 922 901 893 882 877 866 841 832 816 809 799 795 777 775 765 760 755 748 748 744 741 736 734 733 736 722 720 716 719 726 752 734 715 710 708 708 722 735 732 732 733 728 725 715 721 718 707 708 708 708 710 697 689 690 690 690 700 696 696 692 695 -9999
1565 1569 1565 1566 1541 1528 1514 1523 1513 1510 1475 1387 1376 1331 1285 1242 1272 1320 1299 1289 1312 1316 1331 1337 1340 1370 1381 1384 1381 1410 1410 1361 1335 1346 1379 1399 1398 1407 1425 1426 1431 1438 1476 1492 1513 1511 1544 1578 1613 1622 1622 1570 1554 1471 1470 1469 1469 1407 1352 1303 1312 1332 1338 1337 1344 1344 1336 1322 1318 1312 1294 1290 1282 1242 1219 1205 1199 1156 1146 1117 1107 1083 1065 1045 1009 987 952 943 917 915 900 887 876 866 856 837 832 818 812 796 791 778 772 763 757 752 747 746 741 738 734 734 731 731 723 719 717 716 714 716 713 707 708 708 712 734 736 736 723 719 716 712 698 694 693 691 695 695 693 692 690 688 688 691 690 698 701 696 693 699 -9999
1545 1535 1535 1532 1530 1544 1528 1506 1502 1484 1462 1419 1411 1355 1312 1237 1232 1281 1324 1317 1284 1286 1297 1303 1357 1376 1367 1378 1373 1397 1397 1342 1308 1365 1378 1403 1404 1410 1413 1405 1411 1427 1450 1468 1511 1522 1561 1569 1573 1581 1587 1556 1521 1442 1441 1440 1445 1391 1332 1295 1315 1334 1338 1338 1343 1343 1327 1305 1292 1284 1277 1276 1263 1203 1193 1175 1165 1124 1110 1077 1064 1041 1031 1022 989 963 940 921 898 903 894 881 852 835 825 831 821 815 810 797 786 773 767 759 753 750 745 742 737 735 731 728 723 723 722 721 718 717 714 713 711 706 707 709 719 744 733 730 718 716 716 709 699 698 698 695 692 692 691 690 690 695 690 696 690 697 703 693 693 696 -9999
1545 1549 1550 1545 1546 1523 1507 1483 1481 1446 1427 1407 1408 1383 1333 1253 1227 1214 1288 1310 1277 1277 1335 1340 1362 1350 1351 1370 1349 1369 1352 1294 1335 1386 1393 1397 1410 1401 1394 1379 1384 1382 1378 1406 1486 1509 1520 1508 1484 1500 1485 1452 1420 1383 1386 1384 1420 1368 1307 1294 1314 1330 1341 1338 1343 1343 1332 1309 1289 1284 1277 1274 1259 1228 1206 1176 1157 1114 1095 1060 1046 1025 1010 1004 967 950 929 912 879 889 889 881 848 831 811 806 805 809 808 794 784 771 767 757 752 748 744 740 736 735 730 727 723 721 718 718 716 713 714 709 710 716 717 711 711 724 733 741 714 713 711 711 718 723 719 712 690 691 691 690 689 692 694 693 694 692 694 697 691 687 -9999
1565 1566 1563 1562 1555 1531 1510 1488 1477 1451 1423 1390 1373 1359 1342 1277 1238 1220 1231 1257 1244 1247 1326 1347 1341 1329 1363 1373 1342 1352 1320 1316 1367 1382 1390 1390 1404 1390 1383 1373 1360 1355 1351 1374 1474 1498 1493 1467 1409 1417 1407 1381 1356 1363 1366 1361 1358 1319 1269 1284 1305 1322 1333 1334 1354 1349 1325 1299 1277 1276 1286 1311 1330 1333 1311 1228 1198 1114 1096 1056 1025 990 974 966 948 928 905 895 863 857 854 849 829 820 802 792 786 793 792 783 776 767 763 753 749 744 743 741 735 734 728 728 725 720 718 715 716 712 711 712 713 708 704 702 704 727 731 720 705 707 718 722 718 714 700 694 690 690 691 691 692 700 699 693 693 689 692 691 688 685 -9999
1619 1613 1595 1587 1572 1571 1546 1498 1487 1446 1426 1382 1373 1375 1373 1313 1299 1277 1224 1203 1190 1193 1277 1313 1339 1313 1327 1327 1313 1278 1296 1381 1398 1366 1363 1390 1377 1361 1349 1347 1345 1330 1316 1329 1407 1456 1443 1413 1349 1347 1342 1313 1289 1337 1344 1341 1319 1280 1247 1272 1288 1302 1323 1330 1350 1345 1323 1290 1274 1276 1285 1329 1376 1388 1356 1270 1232 1137 1106 1067 1047 979 965 953 943 926 900 891 865 849 831 828 809 799 794 782 779 782 782 776 775 766 760 753 748 745 739 736 730 728 734 727 716 716 718 713 711 710 708 705 706 703 701 700 701 707 701 697 696 698 700 703 699 693 693 693 688 687 687 690 690 693 690 691 691 687 690 687 687 687 -9999
1644 1628 1612 1592 1562 1566 1545 1488 1469 1447 1426 1395 1386 1379 1382 1366 1345 1321 1272 1235 1191 1185 1237 1283 1334 1308 1286 1279 1272 1298 1339 1381 1381 1369 1346 1360 1348 1322 1324 1331 1327 1317 1307 1311 1369 1373 1358 1315 1241 1241 1238 1226 1230 1277 1282 1243 1215 1224 1231 1254 1266 1280 1311 1317 1332 1334 1305 1283 1272 1272 1298 1336 1375 1300 1276 1262 1241 1136 1106 1067 1049 997 971 930 908 897 878 875 847 842 812 797 781 781 779 773 774 781 778 772 771 765 759 750 748 744 739 734 729 727 722 718 713 714 714 714 712 710 708 705 705 701 701 699 701 701 698 698 698 698 698 698 695 694 691 689 690 688 690 690 690 690 689 692 689 689 689 692 690 690 -9999
1580 1564 1528 1522 1498 1490 1504 1472 1447 1406 1393 1391 1372 1366 1371 1379 1359 1346 1294 1268 1228 1206 1175 1207 1293 1283 1220 1248 1297 1290 1309 1330 1341 1369 1356 1323 1312 1292 1309 1317 1315 1309 1300 1297 1340 1348 1320 1277 1211 1209 1208 1197 1199 1239 1234 1191 1184 1230 1226 1243 1259 1274 1302 1308 1320 1322 1301 1286 1270 1277 1323 1356 1350 1259 1226 1208 1205 1156 1120 1069 1042 988 971 934 893 883 873 868 841 833 803 786 773 772 770 765 766 773 773 768 768 762 758 750 744 739 737 734 738 745 722 716 714 713 710 709 708 707 706 703 705 702 699 698 699 698 697 698 697 699 694 696 694 693 690 691 691 693 693 690 689 689 689 690 689 688 688 690 689 690 -9999
1537 1534 1499 1489 1488 1459 1471 1443 1423 1383 1372 1378 1377 1355 1358 1364 1344 1332 1289 1270 1247 1214 1170 1181 1271 1276 1228 1236 1293 1300 1288 1316 1336 1362 1359 1320 1300 1281 1302 1317 1303 1301 1295 1297 1331 1314 1256 1203 1173 1171 1167 1154 1148 1143 1141 1158 1181 1265 1277 1257 1267 1271 1276 1262 1284 1300 1292 1289 1260 1254 1263 1301 1331 1266 1223 1124 1091 1110 1115 1038 995 965 963 953 867 869 869 863 836 828 794 776 771 768 765 763 764 767 767 766 763 758 755 750 743 742 737 733 736 752 724 717 714 713 708 707 706 705 704 701 705 703 701 700 699 698 699 698 697 697 694 694 694 693 692 691 693 693 692 690 689 689 689 689 688 690 690 693 691 688 -9999
1463 1462 1454 1443 1438 1408 1408 1395 1374 1358 1347 1341 1360 1370 1350 1326 1313 1307 1309 1295 1258 1232 1175 1163 1241 1260 1228 1220 1283 1308 1277 1316 1327 1351 1360 1330 1309 1277 1292 1310 1292 1297 1295 1292 1310 1291 1228 1175 1152 1155 1151 1138 1131 1121 1129 1165 1187 1262 1290 1266 1264 1262 1237 1221 1266 1292 1285 1281 1256 1237 1219 1267 1316 1310 1273 1148 1086 1043 1064 1024 982 949 946 936 864 846 833 828 817 800 783 777 769 764 763 762 764 761 756 752 751 750 749 745 747 745 737 735 727 726 721 719 715 711 709 708 707 704 704 704 700 700 701 700 698 698 698 699 698 696 695 694 693 695 693 691 692 692 691 690 690 690 689 688 689 689 690 692 687 683 -9999
1443 1437 1429 1424 1411 1387 1380 1374 1362 1346 1336 1319 1333 1354 1355 1328 1318 1304 1300 1300 1267 1244 1192 1173 1162 1198 1214 1186 1278 1284 1250 1299 1316 1298 1326 1308 1304 1276 1264 1282 1283 1284 1275 1250 1248 1245 1193 1176 1124 1130 1122 1110 1104 1117 1133 1170 1183 1217 1247 1250 1219 1166 1136 1150 1229 1258 1260 1255 1229 1185 1155 1202 1280 1255 1236 1165 1111 1019 1023 1008 968 936 932 912 886 853 821 811 811 805 782 776 767 764 758 759 760 758 754 752 752 750 749 746 747 743 739 735 728 726 721 721 717 714 709 708 705 704 705 702 701 701 700 699 698 698 697 697 697 697 695 694 693 693 692 692 691 692 690 690 693 691 692 688 686 686 686 685 686 -9999 -9999
1421 1397 1398 1398 1379 1358 1343 1331 1342 1334 1329 1296 1289 1328 1347 1323 1302 1306 1301 1288 1266 1242 1201 1194 1156 1172 1219 1191 1225 1234 1216 1287 1298 1288 1309 1277 1274 1260 1252 1276 1270 1274 1249 1213 1196 1197 1163 1160 1115 1117 1100 1090 1094 1119 1134 1165 1179 1194 1202 1210 1176 1122 1107 1118 1211 1236 1241 1233 1209 1159 1139 1185 1218 1199 1176 1169 1126 1020 981 958 937 911 907 894 888 885 878 869 819 793 775 771 764 763 758 754 753 755 754 756 756 751 751 745 746 742 738 739 732 729 725 723 719 714 711 710 706 708 708 702 702 699 700 698 700 699 698 698 697 696 694 694 692 693 692 691 691 692 688 690 693 692 691 683 683 685 689 687 689 -9999 -9999
1404 1385 1391 1388 1369 1349 1338 1332 1328 1337 1326 1302 1285 1297 1305 1327 1308 1277 1277 1280 1278 1255 1230 1220 1174 1162 1152 1166 1142 1193 1236 1237 1232 1248 1280 1237 1227 1223 1237 1263 1252 1247 1215 1174 1120 1116 1115 1110 1088 1091 1082 1078 1085 1117 1136 1151 1151 1163 1141 1103 1090 1082 1079 1084 1190 1213 1223 1215 1191 1144 1124 1159 1167 1160 1130 1127 1118 1034 985 934 922 902 902 886 881 876 865 865 845 811 772 770 763 761 756 756 755 754 754 755 755 754 753 746 746 743 742 741 730 728 724 723 716 713 710 710 706 708 709 701 699 698 700 699 698 697 696 695 696 695 688 692 694 692 692 690 685 683 685 687 690 689 685 686 686 692 688 689 690 -9999 -9999
1361 1345 1363 1375 1359 1346 1332 1331 1320 1345 1342 1305 1286 1286 1288 1315 1312 1271 1265 1257 1274 1259 1239 1230 1208 1190 1142 1143 1144 1198 1234 1208 1193 1240 1271 1242 1224 1214 1226 1258 1250 1240 1191 1171 1131 1106 1093 1091 1091 1085 1081 1075 1084 1109 1132 1141 1140 1134 1114 1085 1081 1070 1068 1068 1141 1171 1188 1183 1141 1102 1087 1077 1075 1076 1073 1037 1042 1034 1004 931 905 887 880 870 864 859 849 842 831 829 776 764 763 761 761 758 758 760 756 759 760 755 752 750 747 742 741 738 730 727 722 717 714 713 711 710 706 706 704 702 700 698 696 697 697 695 695 691 690 689 687 690 693 691 690 690 684 682 682 681 684 689 686 691 690 692 689 692 690 -9999 -9999
1344 1334 1329 1336 1359 1337 1319 1311 1305 1343 1387 1353 1329 1284 1267 1274 1298 1305 1278 1255 1247 1269 1254 1242 1222 1201 1167 1150 1121 1136 1171 1189 1155 1183 1200 1242 1243 1208 1188 1217 1224 1226 1208 1192 1172 1129 1072 1072 1080 1087 1072 1069 1076 1101 1129 1135 1140 1137 1106 1077 1078 1060 1059 1057 1098 1146 1165 1160 1116 1083 1065 1049 1033 1042 1052 1006 997 993 981 923 895 877 874 861 860 852 838 833 817 810 772 763 760 762 762 760 759 761 760 760 761 755 754 749 746 743 742 738 731 728 720 717 714 711 709 709 706 705 706 703 700 701 703 699 697 691 696 687 685 688 684 683 688 687 686 687 687 691 684 684 684 684 689 693 693 694 695 694 694 -9999 -9999
1363 1359 1324 1315 1345 1337 1303 1295 1286 1340 1373 1367 1349 1305 1276 1257 1273 1303 1287 1259 1230 1246 1250 1238 1223 1202 1157 1153 1119 1111 1139 1193 1163 1147 1162 1209 1222 1198 1172 1197 1206 1207 1204 1192 1185 1147 1086 1074 1065 1076 1063 1061 1071 1093 1106 1112 1112 1101 1074 1064 1066 1055 1041 1041 1050 1075 1116 1116 1074 1057 1033 1007 969 972 977 958 945 920 915 888 868 858 858 839 837 837 825 820 812 804 776 769 763 761 763 761 762 761 762 758 757 754 752 748 748 743 741 738 729 725 719 717 713 711 711 710 707 706 704 703 702 705 702 700 696 694 693 689 686 689 685 685 688 685 687 687 696 693 688 689 686 687 689 693 693 694 695 696 697 -9999 -9999
1444 1412 1364 1349 1315 1302 1276 1264 1266 1314 1324 1357 1336 1301 1290 1257 1238 1263 1279 1270 1222 1204 1227 1222 1201 1190 1150 1129 1097 1099 1121 1168 1183 1147 1119 1137 1157 1133 1130 1160 1175 1179 1168 1184 1177 1148 1100 1085 1073 1058 1056 1056 1064 1077 1081 1090 1099 1079 1061 1051 1051 1042 1033 1036 1041 1057 1087 1094 1057 1048 1017 995 953 949 949 926 922 897 891 872 858 850 844 833 830 830 820 814 802 795 780 776 771 764 761 763 761 760 758 757 755 752 750 747 747 742 741 737 730 727 719 718 715 715 713 712 709 709 707 706 705 704 703 697 697 690 689 688 689 687 690 689 689 693 690 693 689 691 690 690 690 692 691 694 695 696 698 703 698 -9999 -9999
1444 1423 1368 1355 1320 1296 1273 1267 1260 1299 1303 1343 1325 1289 1282 1266 1246 1245 1263 1267 1222 1194 1217 1218 1190 1181 1142 1137 1114 1096 1101 1149 1173 1163 1127 1113 1134 1111 1108 1129 1149 1159 1153 1153 1156 1148 1128 1120 1086 1061 1046 1047 1067 1073 1060 1065 1071 1056 1048 1034 1025 1011 1012 1014 1009 1017 1023 1018 987 977 956 949 941 935 928 913 901 882 874 863 856 840 831 819 813 813 815 808 797 788 780 779 774 768 763 764 764 761 760 756 755 751 749 747 748 742 740 735 732 728 722 722 715 715 711 710 709 709 710 708 707 705 706 694 691 691 688 687 686 688 695 696 694 694 692 690 690 692 692 689 692 692 692 693 693 697 700 704 699 -9999 -9999
1442 1432 1405 1391 1372 1355 1311 1294 1290 1255 1252 1304 1321 1301 1287 1257 1250 1237 1217 1223 1234 1203 1200 1218 1201 1180 1138 1135 1125 1101 1076 1114 1144 1143 1115 1098 1124 1103 1096 1104 1119 1135 1143 1147 1155 1154 1138 1133 1091 1061 1046 1046 1051 1054 1049 1048 1053 1052 1048 1029 1023 1007 1008 1008 1001 999 999 983 969 962 949 943 930 929 924 912 902 880 872 862 856 842 833 821 814 808 807 803 795 788 778 777 772 769 764 764 763 762 759 757 757 753 753 747 746 739 737 737 730 729 726 722 719 715 716 714 711 709 710 705 705 701 696 690 689 693 699 699 698 696 696 694 695 693 690 685 692 692 693 689 692 694 695 694 692 698 701 704 700 -9999 -9999
1443 1430 1407 1395 1376 1365 1328 1313 1313 1270 1250 1280 1304 1288 1282 1265 1247 1242 1228 1207 1233 1205 1194 1212 1187 1170 1143 1125 1126 1117 1083 1102 1135 1111 1104 1066 1061 1087 1075 1086 1108 1117 1145 1155 1162 1156 1139 1127 1089 1064 1046 1044 1042 1037 1032 1038 1044 1041 1039 1028 1010 1000 1001 997 991 987 979 977 960 958 942 935 922 916 911 899 892 878 872 861 852 838 831 819 814 805 798 798 790 785 780 776 770 768 764 764 763 764 760 757 756 753 751 749 747 741 739 738 731 728 725 723 719 717 719 717 711 711 710 710 709 699 695 700 699 700 702 699 700 697 697 695 696 694 692 690 691 693 694 692 693 694 696 696 700 699 702 707 707 -9999 -9999
1442 1428 1406 1393 1374 1365 1347 1343 1340 1303 1281 1243 1267 1272 1279 1255 1245 1222 1211 1195 1204 1186 1190 1206 1172 1156 1132 1116 1114 1105 1069 1106 1137 1097 1081 1078 1069 1065 1065 1078 1101 1119 1130 1143 1148 1124 1113 1110 1082 1061 1046 1047 1039 1038 1030 1030 1032 1030 1029 1025 1011 991 991 988 987 983 973 970 955 947 935 929 920 912 903 896 890 875 871 858 846 830 828 817 813 805 797 795 786 783 775 773 769 770 768 770 768 767 767 763 759 761 758 751 749 744 744 737 731 726 724 723 719 719 715 714 713 710 707 704 703 698 696 701 703 704 703 700 701 700 697 698 696 696 690 688 691 694 693 692 694 695 694 696 700 702 703 709 707 -9999 -9999
1440 1424 1404 1392 1376 1369 1350 1348 1319 1306 1289 1252 1245 1242 1261 1266 1247 1210 1190 1178 1185 1165 1178 1196 1224 1229 1179 1149 1099 1103 1068 1061 1074 1096 1077 1038 1036 1037 1039 1063 1083 1107 1115 1112 1066 1056 1052 1059 1056 1047 1038 1035 1032 1029 1027 1013 1008 995 984 1002 1016 984 979 974 973 973 963 962 955 951 941 938 920 912 902 893 888 873 866 849 840 827 825 819 815 807 802 795 787 785 776 775 770 769 771 778 773 771 770 767 762 761 761 751 747 743 742 731 728 729 724 722 720 719 717 713 710 709 708 706 704 699 697 702 705 703 704 704 701 705 701 698 698 695 689 690 687 690 694 697 698 698 698 700 702 702 704 710 714 -9999 -9999
1443 1430 1406 1394 1370 1364 1349 1345 1331 1312 1304 1278 1283 1213 1233 1262 1254 1210 1179 1171 1183 1160 1158 1176 1244 1260 1218 1182 1102 1096 1098 1077 1051 1063 1062 1033 1025 1034 1036 1060 1072 1101 1119 1112 1059 1048 1041 1038 1042 1043 1036 1033 1026 1023 1020 1011 1003 992 985 986 999 998 980 970 969 968 961 957 954 953 941 935 923 907 881 872 870 861 855 840 835 827 823 816 813 802 799 794 786 781 776 773 772 770 773 778 778 778 775 767 763 759 756 753 751 743 741 733 732 731 725 721 719 718 713 711 709 709 709 708 708 702 697 705 704 703 704 701 698 703 700 700 699 697 694 691 689 692 694 698 697 699 700 702 703 703 706 710 713 -9999 -9999
1449 1440 1417 1402 1369 1359 1347 1343 1324 1317 1318 1291 1300 1260 1227 1207 1236 1209 1182 1146 1161 1171 1124 1135 1200 1221 1226 1198 1147 1146 1084 1089 1093 1077 1058 1082 1073 1022 1032 1054 1062 1082 1103 1092 1045 1041 1035 1033 1027 1024 1017 1019 1020 1015 1016 997 990 986 985 978 972 994 989 968 964 963 957 948 949 948 946 944 931 914 885 878 874 860 855 847 838 826 822 814 809 799 798 794 786 781 776 775 773 771 775 776 777 775 771 770 766 757 754 754 752 743 739 735 734 732 727 722 718 714 712 709 710 709 708 708 710 706 700 704 700 702 703 702 702 704 700 700 696 698 690 690 698 698 696 696 699 702 702 705 706 706 708 710 713 -9999 -9999
1452 1440 1424 1410 1377 1359 1342 1335 1329 1335 1329 1297 1299 1281 1262 1202 1205 1212 1184 1134 1148 1173 1120 1107 1150 1168 1193 1175 1146 1141 1102 1077 1075 1088 1086 1081 1075 1020 1025 1047 1056 1061 1065 1056 1039 1042 1035 1030 1019 1015 1009 1011 1005 1008 1012 999 993 979 979 980 973 990 988 969 956 952 940 939 941 940 944 947 947 943 924 919 913 898 890 870 857 852 849 827 815 800 795 791 785 783 777 779 777 776 773 773 771 769 765 763 761 760 759 756 752 745 745 744 740 737 727 723 719 714 711 713 710 710 709 707 709 705 702 702 700 699 703 704 703 704 702 699 698 697 692 692 699 700 701 695 699 701 704 706 706 711 710 713 714 -9999 -9999
1445 1435 1417 1408 1370 1359 1342 1339 1332 1327 1319 1309 1307 1301 1296 1234 1189 1150 1134 1120 1114 1123 1129 1122 1081 1091 1116 1120 1115 1113 1109 1096 1081 1056 1067 1071 1065 1025 1012 1029 1031 1029 1034 1031 1033 1041 1025 1021 1013 1010 998 1007 1003 1002 1003 999 990 979 972 980 971 974 974 970 960 953 941 935 937 935 940 943 945 942 924 919 915 905 898 873 855 851 849 833 823 808 799 790 782 781 780 780 778 775 774 775 773 770 767 764 762 759 760 758 755 750 747 742 739 736 726 722 714 713 710 710 712 713 710 709 709 708 705 702 697 703 705 704 703 705 703 700 698 692 697 698 698 698 702 694 699 700 703 706 708 713 718 724 724 -9999 -9999
1436 1422 1401 1391 1368 1357 1346 1341 1334 1326 1322 1316 1311 1298 1292 1273 1248 1178 1159 1115 1101 1097 1102 1109 1079 1069 1094 1097 1095 1096 1088 1082 1073 1037 1050 1048 1053 1024 1012 1026 1029 1018 1026 1027 1032 1036 1021 1017 1014 1010 1000 994 998 997 994 990 988 974 968 972 966 952 954 955 960 965 946 939 926 928 927 928 935 935 922 918 913 890 881 862 853 844 835 823 815 805 801 795 788 787 783 783 779 777 779 780 775 774 771 764 763 758 760 758 756 751 748 742 738 736 727 721 711 713 709 711 713 713 712 710 711 708 705 699 697 700 703 704 702 703 702 701 695 692 698 701 700 700 703 698 698 701 702 707 709 713 715 723 725 -9999 -9999
1434 1418 1398 1394 1370 1359 1353 1346 1338 1332 1328 1324 1320 1307 1301 1286 1284 1258 1245 1215 1192 1154 1107 1090 1063 1061 1055 1059 1057 1057 1056 1040 1031 1021 1018 1011 1021 1021 1008 1023 1022 1021 1020 1022 1031 1033 1019 1017 1011 1009 1002 996 991 993 993 986 984 974 967 968 965 949 946 954 956 967 947 937 921 925 922 923 933 936 922 917 914 889 873 857 851 843 833 819 813 799 797 795 794 796 793 794 793 788 780 778 772 768 766 765 766 760 758 757 756 752 751 744 743 738 725 723 715 713 712 711 710 713 711 711 710 699 693 695 694 698 704 703 706 704 703 697 700 697 700 701 703 703 704 711 702 701 704 709 710 714 718 722 725 -9999 -9999
1435 1420 1408 1405 1378 1367 1356 1350 1337 1330 1326 1323 1321 1311 1299 1284 1279 1262 1251 1229 1203 1167 1139 1120 1056 1054 1041 1039 1046 1036 1045 1038 1027 1021 1017 1008 1009 1005 1004 1023 1020 1022 1018 1014 1032 1024 1011 1006 994 997 999 998 991 986 980 983 981 980 975 962 958 954 954 945 955 958 954 938 921 917 912 918 919 922 923 922 916 902 883 859 855 846 836 820 819 807 799 793 798 798 795 797 792 789 778 774 770 765 765 764 763 761 759 761 759 754 752 746 744 740 728 721 714 712 714 714 713 714 711 712 710 698 696 697 695 701 705 706 707 703 699 695 704 699 702 701 704 704 704 708 702 700 703 708 711 717 718 724 726 -9999 -9999
1441 1436 1423 1416 1392 1382 1366 1357 1339 1321 1312 1309 1302 1277 1264 1255 1251 1236 1223 1202 1190 1176 1137 1107 1061 1054 1051 1038 1026 1026 1025 1033 1036 1026 1019 1007 1000 1003 1014 1022 1018 1021 1019 1015 1024 1019 1010 1006 995 997 993 993 989 985 980 977 979 978 974 964 962 950 952 942 956 957 958 944 922 917 910 916 921 919 921 921 917 905 896 871 863 848 840 825 819 811 800 795 796 795 786 785 781 782 776 773 768 765 764 762 761 759 757 758 756 751 749 743 743 732 725 722 717 714 712 713 713 713 710 708 699 697 698 705 703 707 704 704 705 704 700 703 706 704 703 707 707 707 708 708 703 701 708 710 712 717 719 725 728 -9999 -9999
1444 1438 1428 1422 1393 1385 1374 1364 1326 1306 1298 1291 1287 1263 1253 1241 1241 1213 1194 1165 1159 1150 1123 1099 1065 1058 1068 1058 1048 1045 1029 1022 1013 1023 1020 1001 1000 1015 1018 1018 1016 1021 1016 1012 1013 1008 997 1001 995 991 993 991 986 984 983 978 971 963 967 955 953 950 941 934 944 950 938 925 927 918 911 918 927 925 929 925 920 916 909 895 883 854 843 821 816 807 803 797 792 789 788 790 782 778 775 772 765 761 758 759 758 755 754 757 755 752 748 743 739 730 725 721 717 715 713 715 713 712 711 707 698 696 700 707 704 705 706 706 707 706 702 704 707 706 706 709 709 708 709 710 708 705 708 710 714 716 719 724 728 -9999 -9999
1440 1436 1425 1420 1387 1379 1371 1363 1336 1328 1290 1267 1254 1242 1237 1227 1229 1217 1201 1139 1113 1112 1109 1098 1061 1069 1072 1075 1060 1053 1035 1025 1009 1026 1027 1007 996 1008 1014 1016 1014 1015 1009 1011 1012 1004 994 996 994 989 993 990 985 984 987 982 975 965 966 956 950 943 939 929 935 944 934 922 914 913 908 914 926 924 928 924 923 918 909 898 889 863 841 828 822 814 804 798 798 795 793 789 784 781 773 772 765 763 762 760 758 752 756 748 744 742 739 729 725 721 719 721 718 716 715 713 712 710 706 706 694 698 702 709 707 708 708 707 708 704 704 706 710 710 707 709 710 708 710 712 712 708 709 709 710 714 719 723 729 -9999 -9999
1431 1426 1415 1408 1385 1378 1372 1362 1345 1337 1311 1281 1265 1235 1221 1214 1219 1211 1202 1152 1111 1088 1086 1087 1088 1095 1100 1101 1089 1076 1055 1039 1003 1008 1011 1011 1004 995 1009 1013 1013 1005 1004 1018 1011 1007 997 990 991 987 977 981 983 987 992 985 981 976 973 968 961 950 936 924 929 928 926 921 906 904 905 912 920 923 916 918 924 921 910 897 892 880 859 836 832 818 806 801 796 792 789 787 782 782 777 770 764 760 760 758 757 751 750 749 748 745 743 731 723 718 715 717 715 716 714 713 711 710 700 702 697 698 699 708 709 708 709 710 710 708 709 711 710 714 717 717 715 713 714 717 716 713 707 705 708 720 726 726 731 -9999 -9999
1417 1412 1402 1394 1379 1373 1363 1355 1349 1341 1312 1291 1273 1250 1240 1209 1194 1200 1190 1151 1115 1093 1107 1111 1102 1102 1121 1116 1094 1080 1052 1037 1005 999 996 1003 996 1005 1011 1012 1011 1003 1008 1020 1011 1005 995 992 987 984 971 975 981 985 988 985 979 981 976 968 963 957 945 920 919 920 924 918 905 902 900 903 901 907 911 910 913 919 917 903 895 885 885 869 856 839 829 812 808 802 796 791 791 787 783 778 769 768 765 762 758 758 756 754 754 749 746 738 735 720 710 711 708 710 714 711 708 702 700 702 698 698 701 710 709 708 709 710 709 708 711 712 712 716 714 715 716 714 715 719 715 713 706 706 712 717 723 729 731 -9999 -9999
1405 1394 1394 1391 1376 1371 1357 1348 1338 1327 1296 1281 1273 1261 1254 1237 1233 1204 1189 1167 1152 1131 1123 1131 1124 1125 1143 1133 1113 1103 1074 1063 1035 1028 1012 997 993 994 1002 998 1000 1026 1026 1009 1007 1004 987 989 986 979 972 966 976 976 976 980 980 972 969 969 967 958 951 926 921 915 920 913 901 899 902 899 900 908 909 908 909 914 913 905 897 888 884 869 859 846 835 811 806 804 798 799 793 790 783 778 773 771 765 759 761 760 758 755 755 751 746 741 739 715 704 704 705 704 710 706 705 702 704 705 707 709 709 714 714 711 711 713 716 716 714 716 716 718 718 719 719 720 720 721 719 716 723 726 731 730 728 735 736 -9999 -9999
1379 1364 1384 1382 1366 1366 1360 1353 1331 1314 1297 1280 1268 1256 1253 1242 1237 1218 1203 1174 1164 1133 1138 1139 1133 1129 1142 1132 1116 1104 1084 1078 1058 1052 1043 1016 1009 986 988 1002 1016 1029 1023 1006 1003 999 985 985 984 980 975 968 973 974 973 977 975 969 965 971 968 956 955 937 931 919 912 908 901 897 900 901 895 894 907 914 898 902 910 908 898 885 876 868 868 856 844 816 814 817 812 807 800 796 792 785 776 771 764 758 759 758 755 755 752 743 745 741 737 715 703 703 704 708 708 709 707 708 709 708 709 713 713 714 716 713 714 714 717 717 715 717 720 721 719 719 721 722 722 722 722 722 728 731 735 735 737 743 743 -9999 -9999
1396 1386 1351 1338 1337 1337 1323 1302 1290 1268 1241 1232 1242 1244 1248 1234 1224 1213 1203 1171 1164 1162 1158 1153 1142 1144 1143 1138 1122 1113 1087 1080 1068 1058 1053 1030 1019 995 987 997 998 997 1006 999 990 987 982 980 976 977 973 970 968 971 976 975 975 971 968 971 966 955 954 938 932 922 922 917 907 900 898 898 893 895 902 901 896 898 899 902 897 885 876 864 863 853 842 825 822 823 817 811 803 800 797 792 777 770 759 755 754 752 753 747 747 739 736 733 731 718 708 705 702 709 715 715 712 712 714 713 714 715 719 712 712 717 719 716 718 721 722 722 722 723 724 725 726 725 728 727 722 730 737 741 747 755 753 759 763 -9999 -9999
1405 1394 1375 1382 1372 1365 1348 1337 1308 1278 1264 1233 1214 1209 1230 1234 1224 1209 1202 1184 1179 1166 1163 1160 1155 1152 1143 1137 1125 1119 1081 1072 1065 1057 1050 1027 1014 994 990 985 987 989 986 987 984 979 975 977 975 977 973 969 960 966 974 977 974 969 970 964 961 950 945 940 935 930 929 922 915 909 900 899 890 890 904 895 888 886 881 884 886 885 886 882 877 860 850 826 819 821 818 815 807 803 797 793 779 776 772 764 761 759 760 758 755 745 742 722 723 712 708 703 705 711 716 718 715 714 716 715 714 716 720 716 716 720 720 717 714 722 721 723 723 725 728 726 726 727 731 729 727 732 737 740 751 760 759 764 769 -9999 -9999
1418 1402 1397 1388 1376 1365 1348 1328 1288 1272 1254 1236 1220 1224 1198 1193 1197 1196 1194 1196 1192 1184 1179 1173 1152 1141 1128 1126 1122 1119 1105 1096 1086 1080 1073 1055 1042 1008 1003 985 990 999 981 976 977 972 971 974 973 975 976 968 958 961 979 985 974 966 968 963 960 951 945 942 936 933 926 923 916 911 901 899 893 890 903 897 893 892 888 872 879 881 881 884 877 861 851 823 816 814 812 811 805 802 795 791 778 778 779 775 774 768 766 760 758 749 745 730 725 710 704 707 708 713 717 720 719 717 717 719 714 717 721 720 717 726 725 723 721 724 726 727 728 730 732 732 736 736 739 739 737 739 748 753 755 768 772 782 779 -9999 -9999
1438 1425 1401 1379 1372 1355 1320 1308 1301 1285 1256 1252 1241 1235 1220 1186 1169 1171 1172 1176 1187 1174 1173 1171 1147 1142 1123 1120 1119 1117 1112 1107 1090 1083 1077 1059 1044 1025 1020 1018 1005 1004 995 973 965 958 955 957 965 967 971 968 958 955 960 972 971 962 953 957 958 951 948 935 936 922 919 917 912 913 906 901 899 888 903 900 891 886 884 881 874 871 868 865 858 850 841 827 825 809 806 804 801 799 795 790 781 783 783 782 776 771 767 756 755 750 745 730 724 710 706 707 709 712 719 721 721 720 720 722 720 718 723 719 718 725 727 726 723 723 727 731 731 736 736 736 739 739 743 744 741 742 752 756 766 771 778 787 792 -9999 -9999
1431 1414 1378 1359 1336 1336 1332 1311 1266 1254 1225 1228 1228 1218 1214 1202 1201 1193 1184 1159 1138 1147 1138 1143 1147 1144 1132 1118 1107 1111 1105 1104 1089 1081 1073 1065 1058 1047 1041 1022 1013 1009 1006 976 967 960 955 952 959 965 966 964 957 957 946 951 957 954 942 948 956 951 947 936 934 924 924 914 912 910 909 902 899 890 895 894 894 889 886 881 881 861 856 850 847 840 836 831 828 819 815 810 802 799 789 789 782 784 785 781 772 767 763 752 749 742 739 725 722 715 709 708 709 710 715 720 723 722 725 725 721 719 725 724 723 719 720 729 726 728 729 733 735 738 740 740 741 744 748 747 745 748 756 760 770 776 783 795 799 -9999 -9999
1418 1409 1371 1376 1365 1354 1313 1297 1260 1254 1226 1218 1214 1212 1210 1199 1194 1182 1178 1176 1162 1133 1125 1115 1117 1125 1141 1132 1111 1103 1088 1085 1084 1078 1069 1065 1061 1050 1045 1039 1036 1024 1015 986 970 956 955 952 947 947 958 958 954 952 945 942 931 926 933 941 946 950 946 941 938 929 922 912 910 906 895 895 884 879 887 894 887 883 887 885 883 867 853 840 841 841 838 834 831 818 816 814 808 805 795 793 788 787 783 778 767 761 755 746 743 739 734 731 727 714 711 709 710 710 714 718 722 722 725 726 723 719 722 724 725 725 722 731 730 729 731 734 736 740 741 741 743 747 749 752 755 760 767 775 779 783 791 806 811 -9999 -9999
1424 1406 1415 1419 1382 1343 1288 1281 1236 1226 1233 1228 1223 1211 1197 1181 1185 1177 1189 1197 1193 1171 1167 1123 1107 1108 1144 1139 1121 1112 1101 1094 1075 1070 1068 1061 1055 1050 1046 1038 1036 1028 1026 995 979 964 960 955 948 945 948 954 955 950 940 937 934 931 927 934 940 944 944 939 935 928 923 909 909 908 902 897 889 882 881 885 885 885 886 874 878 876 873 854 852 837 838 835 831 826 822 820 814 808 799 794 789 782 775 772 762 754 747 742 738 733 728 718 714 716 717 715 715 713 715 719 723 724 728 729 727 721 721 726 728 732 732 724 732 727 731 735 738 741 742 743 745 747 753 755 760 764 771 778 784 788 797 808 815 -9999 -9999
1420 1431 1427 1416 1372 1350 1301 1274 1245 1226 1227 1223 1210 1201 1195 1187 1183 1185 1177 1161 1171 1170 1176 1163 1139 1103 1119 1139 1126 1122 1106 1100 1076 1077 1067 1065 1059 1051 1044 1031 1023 1013 1023 1028 1017 999 988 971 959 957 947 942 939 932 932 928 927 930 930 923 923 936 936 935 931 916 910 901 908 907 899 897 888 882 880 883 886 885 878 868 873 883 879 862 857 844 837 838 833 828 825 822 817 810 797 790 777 771 766 765 757 754 742 732 728 731 725 713 716 730 725 721 717 716 713 714 719 719 728 729 728 725 725 726 731 734 733 726 729 733 733 737 740 744 749 749 753 754 755 757 764 762 776 784 794 801 808 824 826 -9999 -9999
1459 1417 1394 1370 1343 1329 1291 1273 1245 1232 1216 1213 1206 1212 1201 1181 1179 1181 1177 1160 1150 1155 1162 1159 1146 1124 1084 1124 1129 1120 1110 1103 1084 1078 1065 1061 1059 1050 1047 1038 1031 1010 1004 1025 1020 1012 1002 990 964 959 946 938 934 933 931 933 926 923 921 924 918 926 929 933 932 915 907 901 902 901 907 898 887 881 874 877 883 884 874 867 865 871 875 872 863 852 845 833 829 825 824 823 814 809 795 782 770 755 753 753 739 736 737 744 739 737 742 741 740 738 734 728 716 714 723 726 723 720 727 729 728 727 723 727 731 734 734 728 729 737 735 738 741 746 749 751 756 759 760 765 768 768 772 784 803 811 814 831 837 -9999 -9999
1459 1412 1383 1354 1326 1311 1285 1270 1269 1265 1246 1230 1191 1195 1196 1197 1196 1185 1174 1173 1164 1149 1136 1120 1115 1115 1073 1064 1079 1085 1085 1096 1087 1078 1073 1067 1060 1053 1047 1039 1032 1024 1005 1002 1003 1003 1000 998 984 974 954 950 950 947 939 937 931 929 924 918 915 919 922 927 928 921 913 905 903 904 901 897 889 885 872 873 877 880 874 873 871 866 873 875 869 854 847 840 835 829 825 825 819 816 807 793 773 761 775 771 749 750 751 747 742 750 751 749 744 743 742 720 713 714 725 729 730 724 728 729 731 729 722 727 729 734 736 733 728 740 740 740 741 748 749 754 759 764 768 774 782 785 775 774 789 806 822 844 848 -9999 -9999
1443 1423 1392 1361 1314 1297 1285 1283 1286 1280 1264 1250 1202 1183 1169 1175 1193 1194 1189 1170 1159 1161 1155 1136 1127 1117 1085 1071 1053 1051 1052 1072 1078 1068 1065 1063 1051 1043 1040 1035 1030 1012 996 994 994 997 995 994 990 981 960 956 951 949 942 938 933 932 931 927 924 916 914 908 907 919 920 913 906 903 901 898 883 880 881 881 869 875 877 874 874 865 866 859 860 853 851 842 838 832 831 827 815 813 794 779 802 800 787 777 769 767 765 752 751 759 757 753 748 748 737 714 715 717 732 735 732 728 729 731 732 731 721 726 729 736 738 737 735 741 741 741 744 748 750 754 763 767 770 774 786 790 788 783 784 788 797 830 843 -9999 -9999
1393 1371 1357 1338 1316 1293 1270 1258 1255 1269 1244 1233 1215 1221 1226 1177 1154 1156 1158 1155 1140 1154 1150 1132 1122 1115 1104 1107 1101 1093 1065 1050 1030 1034 1021 1017 1009 1004 997 992 988 984 977 980 980 971 972 984 977 969 962 958 956 954 944 941 938 937 934 928 924 921 921 918 915 911 914 911 906 903 902 895 889 885 884 881 867 865 872 871 871 865 873 859 858 857 854 845 841 833 829 823 820 817 786 788 804 802 792 786 778 772 770 757 759 762 757 748 739 726 718 722 724 731 740 736 731 727 730 733 733 730 725 727 730 737 741 743 741 740 743 738 745 751 754 755 762 769 776 778 786 791 803 812 806 798 796 797 804 -9999 -9999
1378 1371 1366 1361 1341 1315 1280 1269 1248 1248 1235 1223 1204 1209 1216 1195 1175 1150 1139 1135 1131 1146 1147 1131 1121 1117 1095 1089 1089 1080 1057 1053 1029 1023 1032 1025 1024 1025 1020 1001 999 1006 1003 1001 995 967 962 958 951 956 953 952 956 952 942 941 942 943 939 934 930 926 923 919 918 918 912 907 905 900 899 895 897 894 892 889 882 882 865 858 852 848 849 855 852 850 846 842 829 828 832 829 817 805 813 813 811 804 797 792 783 779 772 766 767 763 761 744 741 724 720 736 744 742 740 740 738 733 728 733 736 735 725 727 730 739 740 746 741 742 745 745 744 748 751 754 763 769 781 783 788 793 803 814 826 823 817 811 810 -9999 -9999
1372 1347 1344 1348 1338 1320 1287 1272 1241 1243 1218 1204 1206 1196 1198 1201 1197 1193 1187 1163 1147 1121 1114 1116 1103 1103 1082 1081 1072 1068 1090 1083 1078 1075 1072 1067 1060 1047 1041 1025 1025 1020 1014 1004 1000 980 971 967 950 950 950 948 947 944 936 934 938 944 941 933 929 931 924 919 915 913 914 912 911 911 902 900 897 896 892 889 879 879 875 870 859 852 848 845 842 844 841 830 833 823 818 820 808 799 816 817 811 807 800 793 784 781 775 774 774 762 748 754 739 724 724 750 751 747 745 749 752 745 733 731 740 737 734 734 740 743 746 749 741 746 747 746 751 754 753 760 763 768 778 788 801 802 803 809 841 852 832 839 841 -9999 -9999
1366 1351 1335 1329 1323 1314 1277 1271 1250 1234 1213 1205 1197 1193 1184 1190 1186 1186 1185 1172 1165 1151 1134 1101 1095 1093 1096 1090 1095 1091 1098 1091 1082 1075 1063 1060 1053 1041 1033 1008 997 996 991 983 976 974 981 963 957 953 945 943 940 937 930 928 932 932 931 932 929 928 935 926 920 907 912 908 905 907 907 905 899 899 891 890 883 882 873 869 871 866 864 853 849 844 847 838 841 831 830 818 814 818 819 821 812 809 798 792 783 779 771 768 767 754 751 752 737 721 734 754 758 753 747 751 753 752 728 732 738 741 737 739 743 746 752 752 741 749 749 750 754 757 758 763 769 771 778 786 803 809 806 810 836 850 866 867 872 -9999 -9999
1361 1344 1345 1344 1314 1284 1293 1286 1242 1232 1209 1201 1182 1174 1169 1168 1174 1157 1152 1152 1150 1147 1150 1141 1134 1127 1125 1117 1112 1106 1101 1093 1076 1059 1038 1038 1023 1022 1023 990 985 980 973 966 964 963 963 953 953 950 941 936 939 939 932 932 930 929 930 931 930 925 927 923 920 905 904 901 899 904 904 905 895 894 889 891 887 886 878 876 873 869 866 857 856 854 851 845 843 836 832 828 827 824 821 819 815 813 805 799 785 776 776 775 769 770 767 744 732 733 753 762 761 757 754 759 758 756 731 738 736 740 740 742 751 756 760 748 745 755 754 757 757 763 760 763 773 775 777 787 804 811 811 812 828 840 864 873 880 -9999 -9999
1377 1321 1326 1331 1325 1284 1269 1266 1233 1231 1218 1214 1199 1189 1164 1159 1166 1163 1149 1138 1134 1136 1136 1129 1122 1117 1122 1120 1103 1086 1090 1089 1081 1071 1062 1054 1035 1025 1014 1018 1018 1012 993 994 984 976 976 979 976 970 941 943 934 931 927 925 922 919 918 923 923 922 925 920 918 908 902 903 908 889 894 890 887 888 892 892 887 884 878 876 868 867 867 860 859 854 851 849 846 836 835 828 824 824 821 819 811 809 804 802 786 785 783 780 777 773 773 755 739 736 752 763 763 759 759 761 759 758 732 740 739 739 742 744 756 759 762 745 753 757 757 761 762 767 772 764 765 771 786 784 807 812 821 823 828 833 848 861 872 -9999 -9999
1394 1317 1302 1281 1276 1261 1244 1237 1226 1221 1209 1203 1194 1187 1179 1164 1155 1160 1152 1136 1127 1131 1129 1116 1111 1102 1104 1105 1101 1086 1079 1080 1079 1077 1065 1058 1041 1035 1031 1022 1018 1009 1005 999 993 983 978 975 974 963 940 940 938 937 932 927 920 917 916 920 919 922 924 920 914 900 895 890 897 890 891 888 882 888 884 882 876 878 880 882 870 863 859 856 854 850 851 848 846 842 835 828 825 823 816 815 810 812 804 801 801 799 793 789 784 784 784 767 757 740 760 766 765 765 764 762 764 757 734 733 745 742 745 750 761 765 764 748 756 759 761 766 767 773 779 783 772 770 794 790 801 808 818 827 838 844 847 855 861 -9999 -9999
1415 1331 1301 1278 1273 1270 1255 1246 1223 1220 1201 1193 1182 1180 1183 1178 1170 1162 1157 1138 1134 1119 1110 1099 1095 1086 1083 1081 1077 1073 1062 1048 1043 1038 1022 1023 1015 1004 1003 996 991 998 1001 985 960 959 967 976 971 968 967 953 937 935 929 931 927 923 916 914 913 914 919 919 917 907 896 888 888 885 886 886 880 879 874 872 871 873 876 878 873 869 866 859 856 851 851 849 847 839 835 826 822 820 813 813 816 814 811 807 804 799 793 789 784 776 776 762 749 750 766 768 768 768 771 769 767 764 742 734 749 741 751 754 765 768 765 755 753 770 776 782 780 785 786 797 805 791 784 791 806 809 816 819 832 842 862 868 872 -9999 -9999
1418 1331 1310 1311 1323 1298 1282 1264 1239 1233 1206 1198 1178 1173 1178 1177 1170 1166 1163 1148 1142 1129 1119 1112 1109 1089 1080 1075 1064 1062 1066 1060 1039 1034 1029 1022 1015 1009 1000 993 986 978 985 969 957 953 958 976 970 966 957 944 938 934 925 929 926 923 921 919 917 908 915 917 915 909 905 890 886 887 884 879 875 876 873 870 869 870 874 873 869 868 866 862 858 849 850 852 848 835 834 832 829 827 827 825 823 820 816 812 806 804 800 798 797 790 787 768 754 744 759 774 776 773 774 773 770 765 746 735 750 744 751 760 766 772 769 758 754 775 782 791 789 797 798 803 810 810 782 786 809 819 825 823 835 839 855 871 878 -9999 -9999
1388 1336 1337 1338 1336 1325 1298 1272 1229 1226 1215 1203 1186 1180 1159 1156 1149 1156 1147 1129 1123 1117 1121 1107 1107 1102 1095 1091 1094 1083 1055 1048 1057 1063 1056 1052 1042 1038 1033 1015 1005 978 972 979 980 955 952 949 949 947 947 947 946 943 934 929 923 924 918 921 919 906 912 916 914 912 908 896 887 889 887 882 874 873 873 870 866 867 872 872 864 863 863 864 858 848 846 846 837 833 829 834 833 828 825 822 821 817 813 811 809 806 802 800 799 792 789 751 742 750 762 776 779 778 777 775 773 770 746 732 751 753 743 756 773 778 781 761 756 783 797 812 808 814 829 830 829 833 811 797 798 812 834 842 855 867 864 864 873 -9999 -9999
1363 1374 1378 1351 1336 1321 1284 1270 1255 1253 1248 1234 1205 1200 1175 1169 1153 1140 1133 1124 1125 1109 1102 1094 1094 1092 1098 1102 1101 1093 1077 1057 1036 1043 1045 1045 1036 1029 1025 1021 1013 996 987 975 972 967 966 947 948 948 945 943 944 945 941 935 922 916 914 915 914 905 902 910 914 912 911 900 898 893 887 884 876 874 872 873 865 864 871 875 869 867 863 860 861 853 850 839 841 837 833 828 827 828 828 825 817 816 812 807 809 807 804 802 801 793 785 748 754 772 772 776 778 777 778 775 772 768 741 736 758 756 741 748 776 783 785 761 761 783 801 818 821 816 829 845 839 839 831 810 797 801 824 845 862 864 872 875 874 -9999 -9999
1402 1403 1398 1361 1326 1315 1301 1294 1282 1274 1249 1238 1199 1181 1183 1181 1165 1176 1184 1180 1167 1135 1131 1134 1125 1093 1078 1073 1070 1066 1075 1072 1071 1058 1036 1024 1010 1005 1006 990 985 979 972 962 969 955 956 952 948 944 940 944 937 943 942 939 924 917 915 913 909 908 903 904 911 912 911 903 901 894 888 884 876 873 869 872 870 868 865 870 870 866 863 859 859 853 853 844 844 838 834 830 828 831 827 823 820 817 807 805 807 801 801 801 798 778 754 786 789 783 781 782 781 781 779 778 773 767 734 742 764 766 747 745 767 783 793 766 771 771 780 802 811 831 840 865 865 872 856 831 802 810 814 826 859 869 889 889 904 -9999 -9999
1416 1407 1392 1366 1353 1340 1313 1295 1272 1260 1217 1206 1194 1194 1203 1193 1177 1192 1193 1181 1168 1151 1149 1147 1139 1112 1099 1084 1064 1060 1053 1057 1065 1066 1053 1042 1031 1024 1028 1008 996 982 978 988 992 978 965 959 956 955 940 938 933 931 932 932 927 925 920 910 907 902 904 897 903 910 907 903 898 891 887 884 875 869 863 860 865 869 867 862 867 864 862 857 854 853 850 841 839 838 835 831 828 826 825 823 814 809 790 791 798 796 800 801 790 785 764 787 790 786 784 786 782 782 780 776 773 761 738 751 769 772 750 751 756 771 787 767 771 783 776 781 787 818 835 866 874 886 870 843 811 810 832 830 839 848 879 895 919 -9999 -9999
1446 1419 1410 1398 1384 1373 1335 1305 1244 1246 1247 1244 1235 1230 1211 1204 1199 1201 1195 1184 1175 1145 1131 1123 1112 1102 1098 1104 1088 1074 1067 1053 1037 1043 1054 1050 1040 1035 1032 1010 1006 1004 999 996 991 965 961 956 952 954 953 948 940 939 930 932 931 927 920 912 906 904 900 897 898 902 902 903 896 885 885 879 877 870 867 863 864 864 864 860 865 863 858 855 855 854 849 841 837 835 834 830 828 821 821 811 801 796 803 791 776 777 774 772 769 786 785 793 793 789 789 785 778 779 776 771 766 750 750 766 779 781 771 755 765 768 795 794 772 784 802 804 810 801 802 833 848 865 875 859 827 817 837 856 848 851 863 879 916 -9999 -9999
