ncols         57
nrows         57
xllcorner     785767.69847519
yllcorner     9180524.4487093
cellsize      1000
NODATA_value  -9999
756 757 757 752 732 716 710 726 752 726 777 781 806 846 889 932 1008 1131 1113 953 921 885 885 883 889 855 872 845 848 811 898 902 884 853 874 761 673 589 640 605 687 840 668 956 794 675 763 707 732 627 442 374 315 258 246 237 221 
728 728 721 723 715 704 695 700 709 693 719 715 762 774 825 876 905 1019 1018 906 884 864 847 858 875 870 857 869 862 902 904 1044 979 978 903 801 734 725 657 529 604 818 897 944 663 796 728 782 941 683 509 403 334 298 286 246 229 
720 713 713 706 701 691 689 687 680 685 687 683 692 697 748 790 817 852 848 829 812 802 842 846 869 875 869 872 901 947 1047 1115 1295 1164 1111 910 984 982 935 621 620 679 1035 1131 853 753 1096 904 846 809 528 468 344 287 268 256 247 
714 711 709 696 695 686 686 683 674 680 679 680 683 688 729 755 781 807 806 803 787 769 784 862 900 872 843 873 905 1008 1156 1328 1258 1427 1226 993 1171 1079 967 714 825 799 1115 1004 912 966 959 689 605 645 512 573 425 314 293 260 237 
701 694 691 694 691 682 683 681 675 673 672 670 673 681 707 721 737 766 780 771 760 753 794 839 991 841 861 862 968 1027 1209 1441 1275 1437 1229 1117 1256 1152 946 744 878 884 1083 1201 1030 982 862 792 815 752 549 463 572 329 283 274 236 
693 689 688 689 687 680 678 676 674 672 672 669 667 667 669 676 674 696 699 692 693 685 724 939 1014 841 794 778 914 1005 1117 1427 1523 1434 1333 1302 1261 1278 1370 1017 967 1065 1158 1327 1368 1344 1201 1023 930 829 544 516 675 388 315 315 252 
688 686 683 685 682 678 676 676 673 670 669 667 665 665 668 668 669 674 680 695 677 680 688 750 764 840 773 755 908 941 1038 1186 1296 1317 1225 1250 1196 1193 1259 1283 1099 1121 1392 1403 1310 1185 1222 992 873 841 715 702 595 484 342 284 271 
674 674 676 673 670 673 672 670 670 668 667 665 664 665 666 662 662 666 670 672 675 675 685 680 683 732 725 726 833 910 971 1117 1127 1200 1143 1171 1201 1205 1221 1433 1416 1335 1411 1451 1356 1098 1006 916 838 721 586 570 641 392 312 277 323 
673 668 670 672 669 676 667 669 666 667 665 663 661 663 662 660 663 665 667 669 669 671 674 674 677 685 682 681 757 766 831 939 1043 1148 1160 1239 1405 1394 1314 1434 1324 1198 1416 1367 1275 1156 1023 875 817 755 707 618 605 508 415 357 338 
666 666 664 665 665 665 665 666 668 666 661 663 663 662 663 662 663 664 665 666 665 667 671 672 677 679 687 686 799 819 923 1048 1174 1269 1232 1196 1244 1303 1340 1271 1286 1072 1139 1254 1186 1034 915 793 784 759 651 664 664 596 540 395 421 
662 659 663 661 663 662 662 660 661 663 663 664 663 664 662 661 663 663 663 666 664 664 667 668 673 674 677 687 700 735 1021 1116 1238 1363 1217 1140 1063 1094 1108 1258 1031 1095 976 1155 1018 943 873 731 704 712 602 625 695 444 445 461 475 
663 662 662 660 662 664 661 660 662 662 660 661 661 665 661 664 667 663 664 664 665 665 667 670 670 678 682 689 723 741 803 909 1079 1183 1103 1098 1003 936 899 819 872 810 764 925 924 898 875 698 637 662 597 460 554 531 624 662 589 
665 662 662 665 663 662 662 656 662 661 660 661 663 663 666 663 663 666 663 665 664 665 669 668 668 678 688 702 735 745 811 850 931 1040 999 1017 1052 1111 1001 908 755 708 684 800 772 742 723 592 579 587 554 570 538 605 630 663 666 
669 662 670 775 738 667 661 662 661 662 663 663 664 666 665 669 664 668 668 665 666 666 667 666 669 674 702 744 773 780 826 851 835 850 896 937 795 823 1015 923 839 839 664 636 719 851 749 551 552 555 536 539 438 608 608 642 705 
665 666 786 890 788 803 679 666 662 663 665 667 669 669 666 664 667 668 668 667 670 668 666 670 672 684 716 766 813 818 841 877 839 851 881 1001 904 682 723 730 841 748 665 560 553 541 550 539 531 560 415 555 529 598 625 624 780 
670 671 719 899 967 776 773 803 674 690 680 673 670 673 671 667 667 668 667 668 668 665 668 678 683 704 742 792 840 860 854 878 989 965 885 914 849 669 654 654 710 804 659 588 519 520 517 526 518 494 424 457 542 561 611 648 766 
671 676 716 710 736 966 983 865 789 848 776 744 686 683 681 669 670 672 673 669 672 677 688 716 716 827 896 1006 1008 925 977 973 1016 953 855 794 742 692 663 613 651 558 550 554 502 532 507 503 504 505 444 501 547 547 590 598 735 
675 681 741 756 809 892 917 953 891 942 922 759 858 693 690 672 672 672 676 676 676 681 707 730 758 904 971 1126 1064 1044 1184 1126 1324 878 849 760 796 742 659 635 694 554 558 502 491 480 476 503 496 529 543 547 537 563 556 569 690 
690 721 773 798 849 925 941 918 960 821 835 888 1001 712 701 684 698 682 679 676 677 691 715 754 769 942 1033 1141 1086 1164 1579 1416 1469 894 800 880 934 707 642 670 675 668 545 487 508 510 527 537 541 549 566 584 579 617 582 568 646 
729 761 796 833 876 963 1001 959 955 891 819 798 760 755 758 746 728 704 700 720 714 713 777 811 865 1179 1020 1116 1073 1094 1411 1105 1075 844 842 699 684 628 632 839 708 611 587 548 541 539 574 639 700 687 625 635 674 638 661 612 661 
786 795 867 883 902 1030 1037 994 905 966 843 782 791 784 776 760 747 723 693 723 759 751 872 875 946 1095 1097 1132 1099 1046 1238 1071 882 740 702 695 661 644 655 1183 849 594 589 565 566 554 582 688 693 723 723 667 696 773 735 649 674 
932 944 1034 1063 1096 1128 1172 1115 1019 918 894 829 837 808 806 802 772 738 757 748 782 767 849 911 949 1170 1243 1144 1153 1105 945 866 794 718 706 694 670 649 657 880 752 590 588 576 579 570 584 758 786 819 771 719 747 828 832 789 693 
1007 1039 1131 1161 1255 1219 1246 1178 1040 986 951 863 839 828 822 808 806 789 769 855 841 906 1083 1079 1114 1412 1452 1421 1309 1021 823 799 798 737 708 682 682 678 664 611 605 604 612 577 598 601 662 982 966 1113 1059 1015 900 956 967 879 782 
1079 1082 1264 1292 1352 1360 1359 1293 1106 1059 1043 870 864 848 829 842 850 807 799 905 903 929 1157 1251 1285 1263 1299 1400 1255 1243 904 871 842 756 696 683 685 688 683 618 622 620 627 599 609 615 710 999 1215 1150 1256 1139 1056 1037 1018 876 807 
1230 1273 1617 1577 1810 1602 1687 1524 1332 1202 1015 981 928 910 1062 944 925 900 918 1045 1062 1147 1344 1422 1449 1446 1463 1199 1175 1159 1040 924 862 765 717 699 686 690 684 655 645 623 625 626 637 643 742 1167 1299 1284 1414 1372 1323 1153 1062 909 811 
1219 1420 1478 1974 1911 1965 1898 1587 1410 1283 1103 1010 947 953 1016 994 962 1006 986 1127 1166 1216 1476 1607 1612 1672 1746 1389 1335 1302 1207 1050 983 803 752 783 743 735 677 622 635 622 637 636 667 674 720 1259 1387 1523 1513 1533 1418 1219 1142 1047 965 
1422 1551 1568 1769 1935 2134 1876 1808 1353 1281 1121 1033 976 1078 1090 1164 1069 1128 1133 1200 1294 1267 1390 1551 1807 1877 1748 1680 1568 1640 1400 1289 1070 981 809 865 694 664 676 634 639 636 637 658 674 678 709 1070 1241 1397 1419 1435 1481 1293 1203 1080 964 
1464 1580 1985 1904 2214 2225 1897 1694 1421 1391 1162 1097 1030 1256 1328 1471 1335 1225 1415 1456 1508 1558 1522 1616 1863 1780 1865 1979 2004 2065 1846 1841 1451 932 911 1039 680 706 651 623 656 636 664 653 667 671 678 923 1040 1166 1359 1213 1474 1353 1318 1162 963 
1596 1653 2067 2152 2160 2147 1914 1734 1521 1472 1213 1118 1081 1242 1402 1559 1567 1344 1424 1453 1512 1506 1499 1550 1783 1717 1863 2035 2173 1924 1741 1755 1521 897 809 757 812 745 684 635 669 653 656 655 672 679 682 757 796 838 945 957 1214 1242 1355 1300 1261 
1600 1821 2039 2093 2325 2211 1992 1887 1582 1469 1273 1222 1153 1194 1389 1524 1703 1390 1445 1555 1479 1555 1482 1488 1641 1606 1810 2018 1937 2014 1498 1435 1296 1164 784 741 723 720 683 689 704 688 676 651 677 689 696 723 757 798 828 901 1050 1169 1321 1401 1214 
1488 1571 1883 1882 1937 2125 2061 1866 1656 1551 1331 1331 1297 1392 1530 1467 1675 1656 1523 1516 1366 1401 1410 1454 1492 1520 1652 1444 1415 1396 1104 972 887 765 752 743 740 707 687 688 690 693 681 674 693 705 709 755 788 824 877 892 999 1059 1182 1379 1295 
1485 1542 1800 1805 1887 1973 2043 1923 1761 1653 1426 1368 1237 1324 1544 1777 1861 1671 1555 1546 1505 1351 1351 1402 1430 1555 1536 1338 1294 1207 993 903 832 744 726 714 721 709 690 690 688 688 684 701 727 741 766 808 842 866 1022 1062 1204 1276 1358 1278 1150 
1462 1504 1550 1585 1681 1810 1834 2114 1664 1556 1421 1398 1308 1433 1470 1575 1702 1708 1464 1540 1455 1367 1297 1314 1308 1295 1179 1298 1268 1248 887 813 763 737 716 705 696 693 687 685 689 694 699 713 753 774 798 861 895 905 1174 1193 1365 1435 1408 1385 1169 
1483 1488 1530 1557 1635 1828 1731 1730 1613 1517 1482 1384 1455 1508 1629 1779 1547 1525 1556 1402 1285 1229 1200 1076 1123 1143 1043 1005 968 923 814 782 764 738 719 710 699 692 699 706 712 726 735 740 797 825 867 939 983 1016 1212 1325 1515 1660 1592 1371 1273 
1489 1513 1556 1607 1689 2030 1684 1567 1565 1515 1498 1496 1536 1681 1653 1785 1607 1565 1662 1422 1327 1155 1166 1127 1059 1035 1012 983 943 941 813 779 772 744 719 702 703 693 707 721 733 748 758 773 791 837 878 963 1001 1116 1251 1337 1662 1660 1767 1528 1246 
1529 1517 1542 1575 1702 2139 1950 1582 1576 1560 1609 1617 1694 1987 2006 1888 1627 1528 1548 1421 1351 1217 1061 1024 1018 1006 988 942 924 922 817 787 771 749 719 703 705 704 714 734 754 768 793 835 856 827 902 983 1051 1172 1288 1374 1668 1703 1638 1567 1325 
1523 1531 1565 1582 1735 1888 1740 1616 1606 1610 1712 1800 1809 2136 2102 1933 1710 1642 1549 1382 1291 1173 1147 1102 1022 956 959 941 911 886 841 818 792 734 707 722 729 738 774 822 843 887 860 961 1048 1020 1019 1045 1130 1241 1412 1618 1841 1823 1744 1594 1254 
1512 1522 1642 1677 1863 1780 1661 1619 1634 1651 1777 1846 1971 2214 2126 2040 1830 1686 1519 1391 1284 1182 1125 1051 1021 996 954 913 905 880 860 832 782 757 714 722 738 748 788 854 915 962 944 1015 1137 1030 1026 1041 1115 1276 1360 1600 2040 1956 1933 1298 1193 
1432 1491 1470 1520 1592 1697 1632 1630 1654 1706 1850 1981 2174 2362 2171 2080 1917 1762 1628 1327 1241 1145 1109 1102 984 968 937 929 900 895 854 834 819 766 761 739 744 762 818 836 964 963 1021 1128 1206 1279 1128 1052 1152 1183 1323 1515 1853 2035 1913 1389 1136 
1517 1466 1485 1501 1547 1719 1655 1630 1650 1700 1927 2068 2333 2437 2246 2108 1940 1823 1666 1433 1284 1178 1129 1082 1012 978 946 902 888 877 853 824 821 797 767 793 804 841 835 875 988 1138 1159 1307 1379 1494 1389 1146 1122 1181 1265 1503 2071 2019 1698 1328 1138 
1539 1518 1510 1537 1571 1633 1631 1632 1660 1715 1863 2036 2137 2516 2386 2198 2108 1927 1735 1453 1361 1182 1124 1089 1006 970 949 923 908 899 855 846 833 817 842 830 829 867 896 960 1029 1224 1254 1382 1505 1529 1302 1196 1089 1161 1296 1507 1846 1341 1198 1173 988 
1472 1523 1599 1550 1619 1619 1628 1665 1669 1719 1841 1832 2010 2267 2126 2198 2184 1969 1790 1452 1327 1175 1109 1090 1003 988 964 943 932 931 939 878 889 833 887 848 811 865 964 992 1050 1219 1489 1509 1345 1345 1258 1263 1146 1071 1232 1430 1798 1261 1097 943 832 
1552 1611 1567 1598 1612 1604 1645 1683 1709 1743 1767 1829 1902 2028 2147 2083 2302 2148 1642 1466 1325 1175 1108 1073 1004 975 970 1014 1005 1020 977 1004 949 906 895 891 935 945 983 1036 1152 1377 1498 1761 1583 1377 1200 947 899 941 1038 1133 1237 1348 1363 952 796 
1660 1732 1620 1628 1649 1622 1624 1692 1721 1724 1749 1846 1824 2032 2060 2134 2179 2098 1573 1434 1347 1202 1170 1105 1014 1043 1037 1127 1086 1097 1082 1075 1017 966 946 998 947 958 1018 1056 1135 1329 1475 1536 1427 1254 1097 1041 951 852 880 958 1060 1117 1118 952 843 
1867 1834 1745 1795 1817 1784 1752 1669 1678 1667 1710 1751 1851 1955 2095 2219 2138 1788 1552 1451 1383 1232 1187 1162 1076 1115 1152 1247 1309 1351 1364 1368 1213 1155 1106 1008 987 952 1001 1070 1101 1262 1368 1380 1292 1131 999 979 863 815 797 856 899 930 907 849 769 
1604 1754 1757 1850 2006 1871 1809 1702 1633 1657 1735 1805 1870 1955 2129 2249 2101 1781 1605 1503 1429 1294 1192 1138 1125 1185 1225 1367 1462 1526 1539 1523 1332 1253 1164 1034 987 975 963 1130 1102 1052 1132 1152 1033 1043 870 825 810 716 692 688 731 721 707 676 642 
1556 1663 1957 1799 1958 1871 1804 1720 1682 1635 1733 1787 1865 2090 2132 2283 2056 1894 1655 1559 1430 1303 1202 1195 1152 1303 1318 1469 1612 1688 1776 1685 1488 1319 1217 1039 1006 963 961 990 964 988 1052 1103 928 935 822 821 760 685 667 623 664 633 633 612 588 
1613 1803 1717 1695 1661 1696 1703 1669 1599 1520 1656 1738 1904 2169 2361 2312 2148 2170 1732 1593 1476 1319 1270 1216 1201 1305 1409 1645 1827 2090 2431 2174 1690 1413 1339 1128 1059 993 884 861 866 927 920 934 887 831 764 768 713 678 640 603 605 598 576 557 550 
1630 1623 1615 1610 1561 1589 1639 1612 1608 1577 1644 1764 1951 2347 2545 2531 2568 2229 1725 1584 1458 1343 1294 1231 1237 1310 1365 1685 1902 2179 2616 2435 1834 1516 1316 1128 1058 1019 920 833 850 940 916 878 834 778 738 724 679 672 619 592 539 541 523 497 496 
1408 1456 1515 1534 1315 1544 1712 1462 1405 1455 1549 1691 1924 2444 2598 2532 2383 2109 1726 1606 1450 1317 1261 1218 1246 1332 1381 1680 1863 2114 2499 2273 1723 1512 1385 1181 1125 1028 925 821 812 863 831 841 775 751 728 698 667 628 632 551 506 519 510 484 479 
1465 1501 1473 1537 1235 1415 1446 1344 1286 1392 1510 1610 1748 2032 2254 2147 1872 1776 1580 1456 1363 1258 1249 1201 1252 1300 1372 1590 1707 1849 1898 1785 1587 1493 1403 1193 1101 1025 999 931 819 769 740 764 742 662 664 634 622 568 571 554 489 498 488 473 464 
1351 1450 1555 1405 1151 1407 1304 1313 1258 1329 1404 1502 1557 1791 1914 1793 1699 1651 1518 1441 1359 1261 1241 1206 1254 1291 1353 1537 1612 1698 1748 1711 1541 1446 1353 1113 1076 1035 1078 985 933 737 776 719 737 683 647 638 598 565 528 548 493 470 448 449 442 
1362 1402 1388 1168 1194 1248 1235 1233 1182 1222 1139 1229 1339 1418 1497 1498 1474 1430 1375 1364 1328 1255 1244 1226 1254 1260 1293 1443 1460 1592 1617 1578 1493 1419 1341 1107 1089 1115 1015 871 829 823 808 643 670 683 585 609 606 555 531 528 509 483 454 436 429 
1213 1455 1394 1130 964 1144 1096 1267 1202 1168 1052 1145 1208 1271 1303 1407 1378 1363 1356 1335 1304 1271 1270 1297 1280 1260 1280 1375 1415 1394 1433 1380 1400 1429 1386 1407 1406 1269 1035 954 853 789 716 646 653 599 622 577 591 573 544 524 503 469 448 431 438 
1216 1401 1332 1121 880 1103 1042 1294 1174 1116 908 1091 1054 1213 1205 1273 1268 1309 1331 1399 1362 1363 1366 1336 1360 1286 1286 1304 1352 1259 1317 1135 1354 1259 1315 1335 1319 1285 1097 900 849 766 768 700 668 642 624 611 584 563 551 547 519 483 473 428 443 
1267 1291 1128 1070 953 1098 1165 1083 1097 1136 748 954 991 1040 1024 1041 1135 1221 1474 1506 1497 1570 1531 1512 1544 1399 1408 1301 1416 1190 1206 1082 1122 1088 1168 1242 1103 1179 1067 1064 1229 1015 942 833 753 701 663 600 548 556 539 525 514 475 485 436 429 
1300 1208 1042 1040 811 1175 1121 987 1042 1042 712 878 880 881 978 1069 1105 1214 1362 1468 1611 1648 1585 1576 1650 1506 1455 1312 1326 1179 1055 911 872 856 953 955 969 1019 1361 1247 1177 953 916 814 782 808 722 650 653 586 601 554 520 504 487 457 453 
