ncols         108
nrows         105
xllcorner     520861.13565711
yllcorner     1402130.3119182
cellsize      1000
NODATA_value  -9999
9 11 15 21 34 43 57 67 70 109 120 134 174 208 320 434 413 592 930 1185 1123 910 927 792 637 351 330 212 168 138 114 95 54 39 32 16 7 0 0 0 0 0 0 0 0 0 0 0 0 0 0 0 0 0 0 0 0 0 0 0 0 0 0 0 0 0 0 0 0 0 0 0 0 0 0 0 0 0 0 0 0 0 0 0 0 0 0 0 0 0 0 0 0 60 139 150 41 333 310 245 160 323 248 293 338 288 42 -9999 
6 17 19 20 30 35 49 56 72 95 105 121 154 187 263 323 385 544 658 893 683 716 663 677 525 332 273 205 155 119 94 77 50 33 25 9 6 0 0 0 0 0 0 0 0 0 0 0 0 0 0 0 0 0 0 0 0 0 0 0 0 0 0 0 0 0 0 0 0 0 0 0 0 0 0 0 0 0 0 0 0 0 0 0 0 0 0 0 0 0 0 0 0 3 74 44 20 325 175 254 160 355 229 178 78 39 45 -9999 
2 10 15 20 32 38 52 56 65 82 97 105 145 166 229 210 259 340 333 419 366 423 383 356 326 233 199 155 129 104 61 47 35 24 19 8 5 3 0 0 0 0 0 0 0 0 0 0 0 0 0 0 0 0 0 0 0 0 0 0 0 0 0 0 0 0 0 0 0 0 0 0 0 0 0 0 0 0 0 0 0 0 0 0 0 0 0 0 0 0 0 0 1 0 4 2 14 9 14 12 172 160 79 54 39 27 31 -9999 
2 10 16 19 26 30 38 46 54 68 74 86 111 131 159 181 211 248 261 305 275 310 278 242 269 211 170 129 115 89 46 37 28 19 11 3 4 23 28 0 0 0 0 0 0 0 0 0 0 0 0 0 0 0 0 0 0 0 0 0 0 0 0 0 0 0 0 0 0 0 0 0 0 0 0 0 0 0 0 0 0 0 0 0 0 0 0 0 0 0 0 0 0 3 0 0 0 1 5 9 8 22 74 58 33 20 44 -9999 
4 11 12 16 29 27 38 44 49 61 67 67 96 108 134 153 178 186 197 221 206 210 203 215 205 181 150 103 83 75 36 30 18 6 4 4 6 7 0 0 0 0 0 0 0 0 0 0 0 0 0 0 0 0 0 0 0 0 0 0 0 0 0 0 0 0 0 0 0 0 0 0 0 0 0 0 0 0 0 0 0 0 0 0 0 0 0 0 0 0 0 0 0 0 0 0 0 0 0 0 6 20 90 126 99 63 43 -9999 
2 8 9 14 18 25 31 39 40 51 53 53 62 79 80 96 120 122 126 114 127 132 106 119 119 112 98 65 56 49 22 18 43 53 69 68 60 0 0 0 39 41 0 0 0 0 0 0 0 0 0 0 0 0 0 0 0 0 0 0 0 0 0 0 0 0 0 0 0 0 0 0 0 0 0 0 0 0 0 0 0 0 0 0 0 0 0 0 0 0 0 0 0 0 0 0 0 0 0 0 1 15 78 151 94 130 58 -9999 
4 7 7 11 18 25 29 34 36 44 44 50 58 55 62 73 78 91 91 84 93 98 90 90 88 79 73 60 44 35 20 47 73 93 98 109 7 0 0 0 0 0 0 0 0 0 0 0 0 0 0 0 0 0 0 0 0 0 0 0 0 0 0 0 0 0 0 0 0 0 0 0 0 0 0 0 0 0 0 0 0 0 0 0 0 0 0 0 0 0 0 0 0 0 0 0 0 0 0 0 0 0 2 125 87 97 62 -9999 
1 4 7 12 14 22 31 33 33 40 43 40 47 45 49 60 51 66 66 59 69 70 69 69 68 64 61 54 41 33 26 40 96 127 156 124 45 0 0 0 0 0 0 0 0 0 0 0 0 0 0 0 0 0 0 0 0 0 0 0 0 0 0 0 0 0 0 0 0 0 0 0 0 0 0 0 0 0 0 0 0 0 0 0 0 0 0 0 0 0 0 0 0 0 0 0 0 0 0 0 0 0 0 36 59 55 110 -9999 
3 8 7 8 14 17 22 25 29 31 31 32 34 33 31 30 28 37 37 46 40 40 43 39 43 49 50 48 45 38 56 56 151 159 243 302 294 102 0 94 269 40 12 0 0 0 0 0 0 0 0 0 0 0 0 0 0 0 0 0 0 0 0 0 0 0 0 0 0 0 0 0 0 0 0 0 0 0 0 0 0 0 0 0 0 0 0 0 0 0 0 0 0 0 0 0 0 0 0 0 0 0 0 6 37 59 27 -9999 
5 4 6 10 16 17 23 21 27 28 27 28 29 29 28 27 22 29 32 39 38 37 38 42 39 44 43 48 52 46 89 119 172 198 246 380 408 149 131 243 286 104 0 0 0 0 0 0 0 0 0 0 0 0 0 0 0 0 0 0 0 0 0 0 0 0 0 0 0 0 0 0 0 0 0 0 0 0 0 0 0 0 0 0 0 0 0 0 0 0 0 0 0 0 0 0 0 0 0 0 0 0 0 0 0 33 22 -9999 
2 3 7 7 11 16 19 21 25 27 23 19 24 24 24 23 26 30 30 41 38 37 123 39 40 45 42 50 66 105 113 149 249 254 338 465 563 341 251 282 365 114 61 0 0 0 0 0 0 0 0 0 0 0 0 0 0 0 0 0 0 0 0 0 0 0 0 0 0 0 0 0 0 0 0 0 0 0 0 0 0 0 0 0 0 0 0 0 0 0 0 0 0 0 0 0 0 0 0 0 0 0 0 0 0 0 26 -9999 
7 4 5 4 9 10 12 17 16 18 19 21 25 22 44 39 53 33 112 102 46 87 73 60 62 54 61 95 87 118 146 217 351 349 391 511 680 423 449 507 445 360 293 169 0 0 0 0 0 0 0 0 0 0 0 0 0 0 0 0 0 0 0 0 0 0 0 0 0 0 0 0 0 0 0 0 0 0 0 0 0 0 0 0 0 0 0 0 0 0 0 0 0 0 0 0 0 0 0 0 0 0 0 0 0 0 0 7 
5 2 6 8 9 10 13 13 15 17 20 23 31 19 96 95 75 74 98 193 90 172 144 163 85 104 75 122 177 102 181 150 266 352 428 611 695 628 528 565 437 225 172 71 0 0 0 0 0 0 0 0 0 0 0 0 0 0 0 0 0 0 0 0 0 0 0 0 0 0 0 0 0 0 0 0 0 0 0 0 0 0 0 0 0 0 0 0 0 0 0 0 0 0 0 0 0 0 0 0 0 0 0 0 0 0 0 0 
7 8 10 9 11 10 12 15 13 16 19 18 38 30 57 77 68 126 116 125 119 179 246 145 114 142 183 223 231 225 210 227 236 335 361 592 725 725 589 661 384 326 267 22 64 0 0 0 0 0 0 0 0 0 0 0 0 0 0 0 0 0 0 0 0 0 0 0 0 0 0 0 0 0 0 0 0 0 0 0 0 0 0 0 0 0 0 0 0 0 0 0 0 0 0 0 0 0 0 0 0 0 0 0 0 0 0 0 
21 6 4 8 8 8 9 10 9 11 12 11 16 33 61 59 129 153 226 255 257 230 139 165 130 94 135 186 201 198 237 223 280 343 477 392 411 454 449 495 492 327 213 300 166 6 0 0 0 0 0 0 0 0 0 0 0 0 0 0 0 0 0 0 0 0 0 0 0 0 0 0 0 0 0 0 0 0 0 0 0 0 0 0 0 0 0 0 0 0 0 0 0 0 0 0 0 0 0 0 0 0 0 0 0 0 0 0 
62 14 8 7 10 12 9 7 7 12 14 11 14 19 72 74 101 211 233 262 230 207 95 96 81 95 159 156 244 222 255 308 341 467 292 293 267 410 276 333 503 370 252 288 234 116 0 0 0 0 0 0 0 0 0 0 0 0 0 0 0 0 0 0 0 0 0 0 0 0 0 0 0 0 0 0 0 0 0 0 0 0 0 0 0 0 0 0 0 0 0 0 0 0 0 0 0 0 0 0 0 0 0 0 0 0 0 0 
103 26 8 6 6 7 2 3 5 15 8 8 12 14 13 33 72 212 217 262 249 240 100 45 94 134 195 327 352 298 200 155 91 83 83 125 235 136 473 326 479 537 513 340 202 186 144 70 123 53 1 0 0 0 0 0 0 0 0 0 0 0 0 0 0 0 0 0 0 0 0 0 0 0 0 0 0 0 0 0 0 0 0 0 0 0 0 0 0 0 0 0 0 0 0 0 0 0 0 0 0 0 0 0 0 0 0 0 
79 129 95 21 6 11 11 4 0 14 4 4 4 4 3 4 11 56 58 149 86 178 127 62 90 200 275 453 470 392 230 171 121 83 83 90 86 215 228 217 324 445 560 430 214 268 183 190 161 40 9 40 82 0 0 0 0 0 0 0 0 0 0 0 0 0 0 0 0 0 0 0 0 0 0 0 0 0 0 0 0 0 0 0 0 0 0 0 0 0 0 0 0 0 0 0 0 0 0 0 0 0 0 0 0 0 0 0 
68 140 160 66 29 14 10 2 0 5 4 3 4 3 4 4 4 24 21 64 82 119 61 78 116 265 359 686 652 562 285 202 85 83 82 146 134 92 375 250 384 434 544 302 483 363 305 216 92 28 16 9 3 0 0 0 0 0 0 0 0 0 0 0 0 0 0 0 0 0 0 0 0 0 0 0 0 0 0 0 0 0 0 0 0 0 0 0 0 0 0 0 0 0 0 0 0 0 0 0 0 0 0 0 0 0 0 0 
262 60 138 163 99 38 45 11 7 4 3 3 3 4 4 4 3 7 9 15 26 31 39 56 89 318 516 1106 793 552 421 268 83 83 82 82 83 184 349 493 430 572 568 657 624 479 405 222 157 82 70 31 13 0 0 0 0 0 0 0 0 0 0 0 0 0 0 0 0 0 0 0 0 0 0 0 0 0 0 0 0 0 0 0 0 0 0 0 0 0 0 0 0 0 0 0 0 0 0 0 0 0 0 0 0 0 0 0 
164 132 126 228 145 91 55 19 11 3 3 3 3 4 3 3 4 4 8 10 21 28 31 42 87 259 444 818 662 472 298 317 91 82 82 83 83 91 350 336 469 562 670 732 742 601 509 363 140 134 117 45 20 4 1 0 0 0 0 0 0 0 0 0 0 0 0 0 0 0 0 0 0 0 0 0 0 0 0 0 0 0 0 0 0 0 0 0 0 0 0 0 0 0 0 0 0 0 0 0 0 0 0 0 0 0 0 0 
88 175 101 155 177 117 100 32 18 7 6 3 10 3 3 3 3 4 8 10 16 24 28 34 60 223 353 563 607 357 227 156 82 83 82 83 82 111 203 338 526 572 769 865 961 678 574 471 293 197 164 65 26 8 4 0 0 0 0 0 0 0 0 0 0 0 0 0 0 0 0 0 0 0 0 0 0 0 0 0 0 0 0 0 0 0 0 0 0 0 0 0 0 0 0 0 0 0 0 0 0 0 0 0 0 0 0 0 
17 249 154 175 232 173 134 60 30 21 12 18 10 10 3 3 3 4 5 10 10 11 13 26 23 89 145 225 202 211 150 108 82 104 102 85 184 127 369 518 619 841 1006 1296 1396 1151 925 527 349 238 176 79 45 14 9 1 0 0 0 0 0 0 0 0 0 0 0 0 0 0 0 0 0 0 0 0 0 0 0 0 0 0 0 0 0 0 0 0 0 0 0 0 0 0 0 0 0 0 0 0 0 0 0 0 0 0 0 0 
0 121 74 138 251 185 174 68 38 19 16 23 10 14 14 7 4 4 4 10 10 14 17 17 18 52 94 143 122 114 137 95 92 96 85 90 101 190 384 527 751 928 1012 1333 1489 949 691 982 464 261 218 66 43 14 10 6 0 0 0 0 0 0 0 0 0 0 0 0 0 0 0 0 0 0 0 0 0 0 0 0 0 0 0 0 0 0 0 0 0 0 0 0 0 0 0 0 0 0 0 0 0 0 0 0 0 0 0 0 
0 40 36 92 231 207 179 118 62 30 26 22 16 16 15 7 4 14 4 10 12 12 15 18 20 43 53 90 75 68 129 94 100 138 105 112 101 118 440 541 698 844 1067 1340 1522 847 1026 1050 559 398 279 98 34 15 7 4 0 0 0 0 0 0 0 0 0 0 0 0 0 0 0 0 0 0 0 0 0 0 0 0 0 0 0 0 0 0 0 0 0 0 0 0 0 0 0 0 0 0 0 0 0 0 0 0 0 0 0 0 
0 22 91 212 165 166 187 131 65 49 38 30 22 19 16 9 12 10 12 16 14 15 23 23 28 31 38 59 64 72 75 84 88 89 90 94 112 157 326 448 628 804 848 1270 1451 1446 1183 988 605 418 284 144 31 10 7 5 5 0 0 0 0 0 15 9 0 0 0 0 0 0 0 0 0 0 0 0 0 0 0 0 0 0 0 0 0 0 0 0 0 0 0 0 0 0 0 0 0 0 0 0 0 0 0 0 0 0 0 0 
0 7 82 198 216 139 111 153 91 55 41 30 21 16 12 4 3 15 12 9 15 17 27 25 29 34 39 57 60 69 73 80 86 87 91 101 182 298 342 399 564 691 802 1115 1184 1119 1011 849 532 393 294 97 16 11 5 4 1 0 0 0 0 0 0 40 10 0 0 0 0 0 0 0 0 0 0 0 0 0 0 0 0 0 0 0 0 0 0 0 0 0 0 0 0 0 0 0 0 0 0 0 0 0 0 0 0 0 0 0 
0 70 127 97 174 178 140 124 80 51 53 34 26 21 16 13 10 19 16 19 11 22 35 26 23 31 49 60 57 60 77 80 86 95 92 118 151 264 375 365 547 633 613 890 964 935 829 814 527 347 195 77 16 10 11 8 5 4 0 0 0 0 0 0 46 42 24 19 1 0 0 0 0 0 0 0 0 0 0 0 0 0 0 0 0 0 0 0 0 0 0 0 0 0 0 0 0 0 0 0 0 0 0 0 0 0 0 0 
0 48 97 223 269 247 227 176 83 63 42 31 16 18 8 3 4 4 8 9 21 19 26 37 35 46 53 57 55 55 68 76 93 106 112 146 167 195 311 401 392 454 482 583 607 531 525 512 333 203 178 18 20 14 14 11 11 4 0 0 0 0 0 0 0 49 45 20 2 0 0 0 0 0 0 0 0 0 0 0 0 0 0 0 0 0 0 0 0 0 0 0 0 0 0 0 0 0 0 0 0 0 0 0 0 0 0 0 
0 54 114 163 377 308 300 215 122 60 51 27 23 14 4 4 4 13 7 10 19 25 25 29 38 50 53 53 45 46 64 65 83 95 108 135 173 257 294 311 361 354 385 454 447 431 383 427 197 144 168 27 26 18 18 18 12 11 0 0 0 0 0 0 0 0 35 24 31 1 5 0 0 0 0 0 0 0 0 0 0 0 0 0 0 0 0 0 0 0 0 0 0 0 0 0 0 0 0 0 0 0 0 0 0 0 0 0 
0 177 290 158 257 319 214 138 128 59 51 35 21 13 3 4 10 6 13 16 23 30 36 38 42 32 50 59 65 83 74 91 81 100 103 118 127 139 205 236 379 303 270 226 287 246 266 235 201 116 88 47 40 46 39 36 23 17 1 0 0 0 0 0 0 0 0 34 55 50 0 0 0 0 0 0 0 0 0 0 0 0 0 0 0 0 0 0 0 0 0 0 0 0 0 0 0 0 0 0 0 0 0 0 0 0 0 0 
0 32 80 215 321 292 145 217 187 70 34 47 19 16 4 4 3 3 3 4 19 23 44 43 45 58 69 109 122 79 147 147 95 98 102 119 129 139 204 264 424 404 335 315 293 228 162 193 128 127 83 52 62 64 57 48 32 22 16 0 0 0 0 0 0 0 0 0 0 22 0 42 4 14 0 0 0 0 0 0 0 0 0 0 0 0 0 0 0 0 0 0 0 0 0 0 0 0 0 0 0 0 0 0 0 0 0 0 
0 0 34 79 180 278 117 294 329 159 98 40 22 12 4 3 4 3 4 4 4 9 21 40 41 65 94 130 123 125 159 147 178 96 104 123 152 174 294 361 571 457 495 480 532 330 262 124 119 145 65 76 89 94 84 67 46 39 24 0 0 0 0 0 0 0 0 0 0 0 34 27 45 16 25 0 0 0 0 0 0 0 0 0 0 0 0 0 0 0 0 0 0 0 0 0 0 0 0 0 0 0 0 0 0 0 0 0 
0 0 0 0 11 11 41 142 126 306 241 89 30 11 4 3 3 3 3 4 5 3 13 12 18 26 21 33 35 53 102 145 74 150 112 162 197 226 388 384 567 544 659 675 535 422 283 189 136 140 144 169 177 167 146 123 94 65 35 0 0 0 0 0 0 0 0 0 0 0 0 0 56 14 26 48 58 9 6 1 0 0 0 0 0 0 0 0 0 0 0 0 0 0 0 0 0 0 0 0 0 0 0 0 0 0 0 0 
0 0 0 0 9 33 82 101 123 190 251 124 41 34 9 4 4 3 4 4 3 8 3 9 9 15 15 18 23 22 68 57 109 148 135 169 201 223 307 372 407 661 801 737 646 519 315 197 180 185 200 232 231 210 185 172 129 68 39 2 0 0 0 0 0 0 0 0 0 0 0 0 84 26 12 50 8 26 30 0 18 0 0 0 0 0 0 0 0 0 0 0 0 0 0 0 0 0 0 0 0 0 0 0 0 0 0 0 
0 0 0 0 7 67 66 107 93 148 256 107 47 36 11 3 5 4 3 4 4 3 9 9 9 11 14 14 12 18 29 40 139 170 185 153 212 237 242 304 367 462 630 965 850 560 314 262 217 226 246 287 295 251 249 213 140 133 36 6 16 17 8 0 0 0 0 0 0 0 0 0 7 61 42 77 40 106 77 0 24 11 0 0 0 0 0 0 0 0 0 0 0 0 0 0 0 0 0 0 0 0 0 0 0 0 0 0 
0 0 0 0 0 59 62 167 137 170 203 147 75 59 54 50 20 4 4 4 9 4 5 10 11 11 14 14 20 18 20 22 30 220 175 278 130 67 191 168 303 382 541 840 715 498 336 279 278 321 348 435 443 424 409 375 387 321 229 136 51 57 41 25 0 0 0 0 0 0 0 0 148 142 64 66 39 0 0 0 0 0 0 3 0 0 0 0 0 0 0 0 0 0 0 0 0 0 0 0 0 0 0 0 0 0 0 0 
0 0 0 0 0 33 10 189 98 135 270 270 129 100 52 21 81 36 4 8 8 10 11 10 9 12 12 17 17 22 22 25 26 145 56 54 44 50 60 96 260 328 380 546 546 383 297 257 304 346 404 509 535 529 507 453 372 317 278 361 206 86 58 29 4 1 0 0 0 0 0 11 313 251 60 8 22 7 0 0 0 0 0 0 0 0 0 0 0 0 0 0 0 0 0 0 0 0 0 0 0 0 0 0 0 0 0 0 
0 0 0 0 0 8 8 128 198 183 238 260 109 108 36 50 100 45 40 31 14 14 10 11 11 12 9 17 19 19 22 23 28 29 33 39 42 45 59 71 266 247 262 308 316 296 286 291 394 450 485 664 700 653 624 583 422 378 321 208 151 106 53 32 8 10 0 0 0 0 37 1 128 280 86 0 0 0 21 48 91 137 60 9 0 0 0 16 40 33 0 0 0 0 0 0 0 0 0 0 0 0 0 0 0 0 0 0 
0 0 0 0 0 0 0 30 46 77 154 229 99 102 126 146 98 41 57 42 69 39 16 12 12 16 16 18 20 22 25 24 27 29 31 38 44 49 54 60 67 96 113 189 195 206 271 317 444 522 655 1006 1132 1145 1000 895 571 473 407 279 229 136 147 156 64 14 13 4 0 0 12 6 107 200 180 0 0 0 3 62 16 191 61 101 39 1 0 78 149 71 0 1 90 19 0 0 0 0 0 0 0 0 0 0 0 0 0 0 
0 0 0 0 0 0 0 9 22 72 122 260 81 76 128 159 88 95 65 60 31 27 138 81 22 15 17 24 22 27 28 25 24 31 33 37 41 50 55 59 73 80 98 166 173 207 294 339 461 557 705 1142 1409 1483 1307 1018 652 538 440 293 238 139 108 78 80 38 13 4 0 0 0 9 97 64 137 0 0 0 48 238 136 74 85 74 95 11 0 100 230 150 0 0 51 25 4 75 0 1 0 0 0 0 0 0 0 0 0 0 
0 0 0 0 0 0 0 0 0 33 72 216 61 73 175 153 151 103 48 74 34 27 179 198 246 51 25 22 24 25 26 26 31 31 34 43 43 48 58 61 72 82 96 138 174 205 283 338 487 579 702 1274 1658 2161 1653 1243 683 543 440 298 238 125 94 99 166 127 126 1 0 119 49 0 27 25 135 174 50 0 0 17 138 286 124 46 39 48 48 99 61 24 76 84 13 15 4 27 0 0 0 0 0 0 0 0 0 0 0 0 
0 0 0 0 0 0 0 0 0 0 0 23 18 39 276 199 157 168 115 64 40 71 64 91 79 225 200 128 45 35 30 31 30 34 39 40 43 47 55 59 79 87 102 138 167 204 279 334 461 569 723 1246 1591 1824 1550 1218 682 531 407 258 199 126 110 217 213 132 126 49 0 89 46 0 4 9 80 192 164 0 0 0 62 127 183 134 116 33 37 68 84 186 96 46 35 6 2 0 0 0 0 0 0 0 0 0 0 0 0 0 
0 0 0 0 0 0 0 0 0 0 0 0 12 52 152 204 176 86 52 64 92 79 114 95 83 137 210 163 99 98 30 37 30 33 34 39 44 48 53 58 67 99 90 135 162 203 284 319 481 596 666 1063 1311 1458 1271 1005 636 478 366 234 171 98 63 43 126 192 74 111 134 84 82 102 19 19 99 25 42 0 0 0 0 0 159 248 175 101 22 83 173 310 139 73 107 33 5 0 0 0 0 0 0 0 0 0 0 0 0 0 
0 0 0 0 0 0 0 0 0 0 0 0 57 79 193 255 157 141 104 77 79 139 133 168 163 142 135 180 168 114 52 38 56 52 43 45 44 44 72 117 82 91 153 181 149 175 248 279 371 442 513 642 754 735 725 624 445 378 298 160 119 50 27 0 0 0 0 0 0 0 40 55 34 0 8 0 0 0 0 0 0 0 0 0 0 0 8 190 230 205 178 73 5 0 0 0 0 0 0 0 0 101 174 111 16 0 0 0 
0 0 0 0 0 0 0 0 0 0 0 0 0 69 307 385 216 138 75 139 65 101 115 124 153 168 160 96 142 72 43 34 49 94 61 52 47 55 81 109 101 91 121 155 165 163 224 260 333 385 430 544 550 579 581 490 383 325 252 147 95 33 6 0 0 0 0 0 0 0 0 0 0 0 0 0 0 0 0 0 0 0 0 0 0 0 0 24 59 59 45 32 0 0 0 0 0 0 0 0 106 168 160 205 164 32 1 0 
0 0 0 0 0 0 0 0 0 0 0 0 0 21 189 246 217 171 147 152 91 94 123 138 141 135 110 59 107 85 69 52 81 113 104 56 57 53 59 76 85 84 79 128 212 168 199 230 286 319 368 439 448 470 434 397 325 266 224 117 80 18 0 0 0 0 0 0 0 0 0 0 0 0 0 0 0 0 0 0 0 0 0 0 0 0 0 0 0 0 0 0 0 0 0 0 0 1 189 257 339 304 152 247 201 281 304 298 
0 0 0 0 0 0 0 0 0 0 0 0 0 0 25 171 219 144 205 245 166 145 125 133 112 77 72 143 50 115 241 202 241 303 286 239 179 118 99 66 115 94 119 72 86 109 151 171 214 229 255 281 298 296 293 278 215 184 156 78 49 0 0 0 0 0 0 0 0 0 0 0 0 0 0 0 0 0 0 0 0 0 0 0 0 0 0 0 0 0 0 0 0 0 0 0 66 117 253 284 222 258 317 395 433 421 405 287 
0 0 0 0 0 0 0 0 0 0 0 0 0 0 12 73 195 247 224 188 144 108 123 108 105 105 90 52 83 138 286 361 401 430 416 329 260 220 108 96 128 154 176 76 88 94 130 148 184 192 199 239 255 241 231 218 173 148 122 59 32 0 0 0 0 0 0 0 0 0 0 0 0 0 0 0 0 0 0 0 0 0 0 0 0 0 0 0 0 0 0 0 0 0 0 0 0 0 129 241 70 107 200 209 377 301 439 387 
0 0 0 0 0 0 0 0 0 0 0 0 53 36 14 43 59 247 166 241 100 92 109 80 77 92 107 89 60 112 209 346 412 384 381 392 368 305 139 144 209 159 190 75 82 88 103 117 147 154 164 202 206 191 181 169 133 112 92 41 21 0 0 0 0 0 0 0 0 0 0 0 0 0 0 0 0 0 0 0 0 0 0 0 0 0 0 0 0 0 0 0 0 0 0 0 0 0 0 0 0 0 0 0 79 55 220 363 
0 0 0 0 0 0 0 0 0 0 0 0 71 15 143 83 180 264 194 200 182 131 87 99 114 83 63 76 57 63 127 137 216 205 247 271 346 405 265 318 344 317 225 125 111 138 94 98 107 109 170 165 141 133 101 98 73 49 46 25 9 0 0 0 0 0 0 0 0 0 0 0 0 0 0 0 0 0 0 0 0 0 0 0 0 0 0 0 0 0 0 0 0 0 0 0 0 0 0 0 0 0 0 0 0 0 39 106 
0 0 0 0 0 0 0 0 0 0 0 0 0 12 145 243 203 434 284 153 163 153 106 123 122 105 89 89 62 97 81 119 178 209 210 219 322 362 356 298 347 308 222 156 138 165 110 107 101 128 147 247 164 133 76 64 44 31 25 10 6 0 0 0 0 0 0 0 0 0 0 0 0 0 0 0 0 0 0 0 0 0 0 0 0 0 0 0 0 0 0 0 0 0 0 0 0 0 0 0 0 0 0 0 0 0 0 0 
0 0 0 0 0 0 0 0 0 0 0 0 70 93 145 216 187 270 271 249 184 203 135 133 88 121 86 81 79 118 109 126 172 186 144 181 231 290 327 305 342 300 253 165 148 139 127 128 100 101 240 272 184 128 67 46 29 24 127 8 4 0 0 0 0 0 0 0 0 0 0 0 0 0 0 0 0 0 0 0 0 0 0 0 0 0 0 0 0 0 0 0 0 0 0 0 0 0 0 0 0 0 0 0 0 0 0 0 
0 0 0 0 0 0 0 0 0 0 0 3 19 56 189 221 230 191 275 470 321 170 125 112 127 129 123 81 103 117 151 145 197 102 102 210 164 180 305 270 299 296 233 155 171 167 150 178 152 108 126 193 111 140 75 74 28 20 17 6 4 0 0 0 0 0 0 0 0 0 0 0 0 0 0 0 0 0 0 0 0 0 0 0 0 0 0 0 0 0 0 0 0 0 0 0 0 0 0 0 0 0 0 0 0 0 0 0 
0 0 0 0 0 0 0 0 0 0 5 4 24 22 132 110 204 176 297 396 338 172 125 176 162 157 122 100 118 135 106 142 166 144 95 193 198 183 265 309 246 261 218 180 145 141 198 197 166 109 107 130 109 117 80 70 20 17 14 6 5 0 0 0 0 0 0 0 0 0 0 0 0 0 0 0 0 0 0 0 0 0 0 0 0 0 0 0 0 0 0 0 0 0 0 0 0 0 0 0 0 0 0 0 0 0 0 0 
0 0 0 0 0 0 0 0 0 0 0 7 22 148 132 159 198 146 157 338 333 201 223 258 156 134 123 122 139 156 118 94 155 133 84 191 185 171 202 257 260 232 212 136 146 149 181 211 174 102 99 116 98 113 113 91 100 159 64 77 43 26 0 0 0 0 0 0 0 0 0 0 5 3 29 44 52 0 0 0 0 0 0 0 0 0 0 0 0 0 0 0 0 0 0 0 0 0 0 0 0 0 0 0 0 0 0 0 
0 0 0 0 0 0 0 0 0 0 0 4 68 87 186 155 172 162 107 129 208 399 238 236 210 126 132 120 85 108 130 144 101 79 141 196 102 127 169 156 157 153 140 135 122 147 132 138 113 111 93 89 88 89 99 93 108 153 169 60 69 68 60 17 0 0 0 0 0 0 0 0 0 30 45 59 67 19 0 0 0 0 0 0 0 0 0 0 0 0 0 0 0 0 0 0 0 0 0 0 0 0 0 0 0 0 0 0 
0 0 0 0 0 0 0 0 0 0 0 8 77 180 174 203 149 231 175 98 221 310 334 167 174 145 141 142 126 86 91 80 82 117 142 175 122 173 158 158 147 144 124 119 145 137 158 150 91 124 100 88 89 89 96 94 110 197 199 55 57 125 140 61 0 0 0 0 0 0 0 0 4 26 30 59 76 51 66 52 30 0 0 0 0 0 0 0 0 0 0 0 0 0 0 0 0 0 0 0 0 0 0 0 0 0 0 0 
0 0 0 0 0 0 0 0 0 0 3 5 167 114 352 304 320 254 256 224 103 195 265 260 186 131 135 124 107 86 117 126 85 90 129 94 161 94 143 141 136 126 117 114 133 128 142 91 148 140 127 103 111 104 125 89 73 48 39 75 73 74 72 36 0 0 0 0 0 0 69 63 57 83 118 97 155 158 151 154 99 81 22 4 91 0 0 0 0 0 0 0 0 0 0 0 0 0 0 0 0 0 0 0 0 0 0 0 
0 0 0 0 0 0 0 0 0 0 0 20 134 73 80 304 284 316 303 256 97 71 127 216 347 239 130 157 145 146 110 135 90 113 80 94 164 144 141 116 127 113 105 99 128 166 133 96 128 105 96 92 97 94 100 49 54 40 24 75 63 28 37 0 0 0 0 0 0 17 47 133 175 96 166 209 265 172 150 229 167 147 204 211 37 0 0 0 0 0 0 0 0 0 0 0 0 0 0 0 0 0 0 0 0 0 0 0 
0 0 0 0 0 0 0 0 0 0 0 8 203 236 205 219 169 306 355 272 181 135 54 58 111 261 172 127 120 116 104 96 94 88 79 152 91 153 120 106 122 108 97 90 110 154 137 130 99 95 73 96 84 92 85 71 49 51 23 19 27 0 5 0 0 0 0 0 0 0 91 205 326 137 292 189 328 227 228 288 270 238 236 95 65 68 101 0 0 0 0 0 0 0 0 0 0 0 0 0 0 0 0 0 0 0 0 0 
0 0 0 0 0 0 0 0 0 0 0 16 213 322 134 231 138 235 206 336 210 217 99 238 69 30 272 214 112 139 114 144 202 182 156 153 148 139 104 117 126 84 110 67 41 93 122 128 89 57 66 93 98 87 84 78 40 45 15 7 29 17 0 0 0 0 0 0 0 103 232 291 333 159 375 362 545 282 471 444 428 430 456 368 229 355 239 238 0 0 0 0 0 0 0 0 0 0 0 0 0 0 0 0 0 0 0 0 
0 0 0 0 0 0 0 0 0 0 0 6 142 195 157 209 72 101 81 175 310 258 187 104 116 75 72 199 78 84 129 185 171 175 163 157 151 139 61 123 112 84 83 24 45 84 111 86 84 75 79 76 78 75 70 68 79 24 33 6 4 15 0 0 0 0 0 0 19 277 436 416 300 192 412 435 546 324 526 535 519 530 584 316 280 467 287 188 13 0 0 0 0 0 0 0 0 0 0 0 0 12 8 10 5 3 0 0 
0 0 0 0 0 0 0 0 0 0 5 5 66 196 179 326 157 107 101 203 220 259 168 173 85 40 21 49 71 101 165 207 178 136 167 140 143 121 107 122 110 86 75 51 15 29 110 94 92 83 76 68 68 74 70 62 64 45 59 60 31 0 0 0 0 0 0 16 45 285 241 267 346 280 366 408 358 287 482 592 565 791 481 407 382 341 289 335 85 41 0 0 0 0 0 0 0 0 0 11 27 148 119 65 39 82 26 17 
0 0 0 0 0 0 0 0 0 0 0 0 67 152 186 111 125 69 66 70 228 130 26 65 92 6 30 40 54 51 212 213 199 162 85 75 46 126 119 98 94 69 84 42 77 62 69 71 94 59 76 54 54 65 79 62 26 39 75 87 78 96 45 25 0 0 0 94 108 390 537 400 503 497 577 586 570 301 601 651 691 692 998 962 677 660 526 399 142 87 0 0 0 0 0 0 0 0 0 22 169 156 116 80 90 70 20 14 
0 0 0 0 0 0 0 0 0 0 0 0 18 115 186 28 97 81 62 8 24 33 0 0 60 2 3 40 24 109 177 172 193 174 163 154 126 123 111 100 75 55 55 39 47 55 80 86 72 74 62 73 52 64 67 69 35 42 73 76 87 111 99 93 109 73 38 219 335 578 584 562 572 497 501 668 646 476 425 512 848 768 903 721 752 859 642 436 165 100 8 0 0 0 0 0 0 0 0 9 200 173 142 104 90 69 21 3 
0 0 0 0 0 0 0 0 0 0 0 0 9 86 74 31 102 61 75 24 0 6 0 0 0 0 3 7 8 83 162 161 128 172 158 118 137 114 69 97 87 61 47 51 42 26 52 59 60 60 60 67 66 64 61 49 41 16 78 77 86 119 111 115 116 145 161 243 350 478 517 683 643 547 681 624 613 589 622 682 881 892 469 658 1000 410 525 338 97 74 40 19 14 23 13 0 0 0 3 110 217 160 151 105 54 5 2 1 
0 0 0 0 0 0 0 0 0 0 0 0 5 7 46 27 31 3 6 0 0 0 0 0 0 0 0 0 40 27 105 122 59 132 135 136 127 116 103 82 33 63 37 25 28 34 24 67 71 65 45 52 44 57 55 57 14 61 71 104 110 134 125 119 138 145 167 276 325 472 504 369 517 633 646 542 478 501 603 661 829 779 517 611 734 597 361 255 115 81 39 21 14 25 20 0 0 0 12 41 112 153 94 28 6 0 2 1 
0 0 0 0 0 0 0 0 0 0 0 0 0 9 3 14 9 0 0 0 0 0 0 0 0 0 0 0 2 58 49 95 107 113 123 130 122 114 103 81 79 67 55 45 41 63 23 44 19 36 49 42 58 58 42 52 43 70 95 101 109 136 120 116 127 139 165 251 253 377 285 438 560 537 494 442 373 441 407 570 637 529 399 498 476 641 367 221 114 78 40 25 20 34 27 0 0 0 22 78 156 82 46 14 4 0 3 2 
0 0 0 0 0 0 0 0 0 0 0 0 0 0 20 0 0 0 0 0 0 0 0 0 0 0 0 0 0 51 19 28 119 105 104 119 118 107 83 88 82 65 58 15 28 68 30 17 23 26 40 39 42 47 60 34 26 59 87 81 89 80 104 93 115 129 141 172 211 247 189 241 249 246 188 165 226 236 309 281 401 304 141 144 172 196 144 100 83 64 41 25 17 46 33 13 0 9 30 83 60 32 33 1 1 0 0 0 
0 0 0 0 0 0 0 0 0 0 0 0 0 0 0 0 0 0 0 0 0 0 0 0 0 0 0 0 0 0 55 11 103 105 93 110 104 114 93 77 83 81 71 16 24 33 26 30 44 62 52 52 67 43 41 22 34 26 61 61 64 77 105 95 110 111 131 152 171 219 145 203 194 144 121 109 113 156 219 248 273 247 109 84 103 144 119 86 64 51 29 27 12 44 42 6 8 27 24 42 64 27 18 3 0 0 0 0 
0 0 0 0 0 0 0 0 0 0 0 0 0 0 0 0 0 0 0 0 0 0 0 0 0 0 0 0 0 0 0 7 32 123 94 60 41 105 70 74 79 64 59 42 50 37 40 27 23 50 43 56 71 44 35 8 31 36 65 74 80 95 88 89 106 104 107 124 129 116 112 138 118 91 55 45 47 121 120 186 169 126 46 46 75 97 84 64 41 29 20 18 7 49 54 14 3 34 28 31 66 33 16 0 0 0 0 0 
0 0 0 0 0 0 0 0 0 0 0 0 0 0 0 0 0 0 0 0 0 0 0 0 0 0 0 0 0 0 0 0 0 110 106 13 80 98 79 51 69 87 87 17 49 76 49 56 15 18 18 31 50 43 40 28 23 32 40 49 39 67 72 78 64 69 73 75 60 73 74 64 60 71 63 0 28 5 0 0 10 6 11 23 26 30 17 14 12 10 5 10 6 49 54 31 29 29 25 17 47 30 11 0 0 0 0 0 
0 0 0 0 0 0 0 0 0 0 0 0 0 0 0 0 0 0 0 0 0 0 0 0 0 0 0 0 0 0 0 0 0 50 15 38 41 69 65 67 72 68 54 50 58 75 45 16 7 46 16 35 36 21 9 28 38 21 28 25 52 47 70 59 55 63 65 57 58 52 53 50 37 45 42 0 0 0 0 0 3 5 8 15 23 13 13 6 5 0 0 4 4 56 41 37 29 21 13 21 33 22 3 5 0 0 0 0 
0 0 0 0 0 0 0 0 0 0 0 0 0 0 0 0 0 0 0 0 0 0 0 0 0 0 0 0 0 0 0 0 0 0 11 5 40 31 42 59 61 82 68 15 60 25 57 54 42 28 21 40 30 37 39 32 27 19 15 26 37 24 36 53 55 54 70 63 44 43 43 37 36 28 32 0 0 0 0 0 1 1 6 6 10 5 5 0 0 0 0 4 3 42 43 33 37 22 12 25 36 4 3 0 0 0 0 0 
0 0 0 0 0 0 0 0 0 0 0 0 0 0 0 0 0 0 0 0 0 0 0 0 0 0 0 0 0 0 0 0 0 0 0 5 47 6 7 5 54 61 46 49 54 53 59 61 27 26 12 30 23 31 23 36 12 2 10 7 43 37 38 43 44 44 45 46 32 25 29 28 29 13 19 0 0 0 0 0 0 0 0 0 0 0 0 0 0 0 0 3 5 11 24 38 24 13 14 9 5 6 3 0 0 0 0 0 
0 0 0 0 0 0 0 0 0 0 0 0 0 0 0 0 0 0 0 0 0 0 0 0 0 0 0 0 0 0 0 0 0 0 0 0 39 0 0 0 6 52 65 64 40 51 64 43 4 2 34 15 27 17 23 34 22 12 11 27 34 37 46 49 49 44 42 42 39 21 23 15 5 0 3 0 0 0 0 0 0 0 0 0 0 0 0 0 0 0 0 0 5 22 19 30 36 24 20 8 7 4 4 0 0 0 0 0 
0 0 0 0 0 0 0 0 0 0 0 0 0 0 0 0 0 0 0 0 0 0 0 0 0 0 0 0 0 0 0 0 0 0 0 0 9 0 0 0 0 49 56 57 54 50 34 45 2 32 24 15 14 15 8 18 6 9 17 12 37 32 56 56 44 45 47 49 39 38 36 26 32 21 31 0 0 0 0 0 0 0 0 0 0 0 0 0 0 0 0 0 6 31 41 41 32 21 11 22 15 3 0 0 0 0 0 0 
0 0 0 0 0 0 0 0 0 0 0 0 0 0 0 0 0 0 0 0 0 0 0 0 0 0 0 0 0 0 0 0 0 0 0 0 0 0 0 0 0 7 26 37 30 20 29 33 18 30 8 22 11 5 0 21 20 13 7 13 17 18 51 60 45 46 65 47 51 95 78 86 45 0 0 0 0 0 0 0 0 0 0 0 0 0 0 0 0 0 0 0 2 21 48 46 39 27 27 24 6 0 0 0 0 0 0 0 
0 0 0 0 0 0 0 0 0 0 0 0 0 0 0 0 0 0 0 0 0 0 0 0 0 0 0 0 0 0 0 0 0 0 0 0 0 0 0 0 0 0 11 5 27 30 27 30 3 12 31 0 0 0 6 31 26 23 25 15 17 36 62 60 46 43 45 78 114 191 163 84 0 0 0 0 0 0 0 0 0 0 0 0 0 0 0 0 0 0 0 2 5 22 48 58 49 41 32 19 21 2 0 0 0 0 0 0 
0 0 0 0 2 0 0 0 0 0 0 0 0 0 0 0 0 0 0 0 0 0 0 0 0 0 0 0 0 0 0 0 0 0 0 0 0 0 0 0 0 0 0 5 14 19 18 17 20 20 5 0 0 2 15 25 14 21 20 10 17 27 103 70 47 47 50 93 91 94 122 138 0 0 0 0 0 0 0 0 0 0 0 0 0 0 0 0 0 0 3 7 11 38 47 63 47 33 9 7 10 0 0 0 0 0 0 0 
67 58 38 32 27 16 10 0 0 0 0 0 0 0 0 0 0 0 0 0 0 0 0 0 0 0 0 0 0 0 0 0 0 0 0 0 0 0 0 0 0 0 0 0 0 0 5 4 8 0 0 0 0 13 8 12 29 20 11 13 7 11 30 120 61 49 49 152 84 0 0 0 0 0 0 0 0 0 0 0 0 0 0 0 0 0 0 0 0 0 4 6 15 46 51 72 56 39 12 11 6 0 0 0 0 0 0 0 
57 47 58 50 37 45 45 7 7 0 0 0 0 0 0 0 0 0 0 0 0 0 0 0 0 0 0 0 0 0 0 0 0 0 0 0 0 0 0 0 0 0 0 0 0 0 0 0 2 18 7 0 0 6 0 9 22 15 0 11 12 1 13 19 60 50 52 19 58 119 0 0 0 0 0 0 0 0 0 0 0 0 0 0 0 0 0 0 0 0 4 7 26 72 52 79 69 36 26 17 28 3 8 0 0 0 0 0 
53 70 79 64 44 90 143 45 23 0 0 0 0 0 0 0 0 0 0 0 0 0 0 0 0 0 0 0 0 0 0 0 0 0 0 0 0 0 0 0 0 0 0 0 0 0 0 0 0 0 2 0 0 0 0 0 0 1 9 2 12 4 0 22 96 71 66 0 50 0 0 0 0 0 0 75 71 0 0 0 0 0 0 1 2 3 0 0 0 0 30 34 52 42 88 88 43 40 49 42 44 28 24 0 0 0 0 0 
189 208 225 276 186 85 83 203 80 0 0 0 0 0 0 0 0 0 0 0 0 0 0 0 0 0 0 0 0 0 0 0 0 0 0 0 0 0 0 0 0 0 0 0 0 0 0 0 0 0 0 0 0 0 0 0 0 0 6 18 8 5 0 0 29 49 32 0 0 0 0 0 78 36 11 8 41 0 0 0 0 2 5 3 3 3 0 0 16 4 27 50 49 46 91 72 56 55 66 60 44 14 6 1 0 0 0 0 
112 161 240 344 228 170 71 259 132 0 0 0 0 0 0 0 0 0 0 0 0 0 0 0 0 0 0 0 0 0 0 0 0 0 0 0 0 0 0 0 0 0 0 0 0 0 0 0 0 0 0 0 0 0 0 0 0 0 2 12 11 5 0 0 0 9 0 0 0 0 0 0 30 101 153 6 0 0 0 0 0 2 6 3 3 5 4 5 17 27 38 51 46 65 93 77 76 73 64 42 33 7 34 0 0 0 0 0 
115 101 175 321 381 290 129 250 189 1 0 0 0 0 0 0 0 0 0 0 0 0 0 0 0 0 0 0 0 0 0 0 0 0 0 0 0 0 0 0 0 0 0 0 0 0 0 0 0 0 0 0 0 0 0 0 0 0 6 14 0 0 0 0 0 0 0 0 0 0 0 0 149 208 207 127 88 5 1 0 0 0 8 33 29 4 11 14 50 51 56 68 61 99 137 127 110 99 39 37 62 46 43 3 0 0 0 0 
0 52 80 99 151 182 226 199 202 0 0 0 0 0 0 0 0 0 0 0 0 0 0 0 0 0 0 0 0 0 0 0 0 0 0 0 0 0 0 0 0 0 0 0 0 0 0 0 0 0 0 0 0 0 0 0 0 0 0 0 0 0 0 0 0 0 0 0 0 0 0 67 63 68 44 104 70 56 66 9 6 5 31 40 36 7 14 24 50 67 66 90 98 133 136 128 82 101 53 69 73 33 28 2 0 0 0 0 
0 0 0 0 12 12 81 148 92 0 0 0 0 0 0 0 0 0 0 0 0 0 0 0 0 0 0 0 0 0 0 0 0 0 0 0 0 0 0 0 0 0 0 0 0 0 0 0 0 0 0 0 0 0 0 0 0 0 0 0 0 0 0 0 0 8 30 0 0 0 6 15 16 15 14 5 5 162 128 84 170 125 149 16 51 21 8 20 72 75 76 102 104 153 141 140 115 106 70 93 63 37 23 21 0 0 0 0 
0 0 0 0 0 0 0 5 91 15 0 0 0 0 0 0 0 0 0 0 0 0 0 0 0 0 0 0 0 0 0 0 0 0 0 0 0 0 0 0 0 0 0 0 0 0 0 0 0 0 0 0 0 0 0 0 0 0 0 0 0 0 0 0 0 0 0 46 86 0 2 4 120 146 123 119 94 39 24 37 132 204 105 67 25 75 85 54 58 95 60 122 138 161 179 174 151 137 92 102 91 62 23 28 0 0 0 0 
0 0 0 0 0 0 0 0 61 172 0 0 0 0 0 0 0 0 0 0 0 0 0 0 0 0 0 0 0 0 0 0 0 0 0 0 0 0 0 0 0 0 0 0 0 0 0 0 0 0 0 0 0 0 0 0 0 0 0 0 0 0 0 0 0 0 0 0 0 0 38 17 119 159 139 169 146 148 67 83 270 159 83 82 84 97 66 25 40 50 89 141 158 196 218 213 179 164 124 119 104 68 56 21 0 0 0 0 
0 0 0 0 0 0 0 0 0 64 72 0 0 0 0 0 0 0 0 0 0 0 0 0 0 0 0 0 0 0 0 0 0 0 0 0 0 0 0 0 0 0 0 0 0 0 0 0 0 0 0 0 0 0 0 0 0 0 0 0 0 0 0 0 0 0 0 0 0 0 3 1 39 86 166 129 51 81 107 158 350 261 162 58 42 18 31 14 52 76 80 228 209 296 318 365 298 235 165 136 129 56 75 31 0 0 0 0 
0 0 0 0 0 0 0 0 0 0 0 37 0 0 0 0 0 0 0 0 0 0 0 0 0 0 0 0 0 0 0 0 0 0 0 0 0 0 0 0 0 0 0 0 0 0 0 0 0 0 0 0 0 0 0 0 0 0 0 0 0 0 0 0 0 0 0 0 0 0 0 2 34 45 10 19 92 128 198 320 634 556 397 177 44 29 21 13 68 181 158 274 423 361 493 488 396 324 181 155 132 101 64 70 0 0 0 0 
0 0 0 0 0 0 0 0 0 0 0 39 0 0 0 0 0 0 0 0 0 0 0 0 0 0 0 0 0 0 0 0 0 0 0 0 0 0 0 0 0 0 0 0 0 0 0 0 0 0 0 0 0 0 0 0 0 0 0 0 0 0 0 0 0 0 0 0 0 0 0 0 10 12 18 76 97 143 210 359 743 557 416 104 161 22 27 19 59 225 245 390 440 606 629 642 509 413 238 176 151 109 96 60 0 0 0 0 
0 0 0 0 0 0 0 0 0 0 0 0 0 14 0 0 0 0 0 0 0 0 0 0 0 0 0 0 0 0 0 0 0 0 0 0 0 0 0 0 0 0 0 0 0 0 0 0 0 0 0 0 0 0 0 0 0 0 0 0 0 0 0 0 0 0 0 0 0 0 0 1 18 27 40 107 77 150 178 350 321 307 246 228 227 59 22 55 207 309 536 772 945 1136 1013 897 717 505 258 207 161 92 57 60 0 0 0 0 
0 0 0 0 0 0 0 0 0 0 0 0 20 37 58 0 0 0 0 0 0 0 0 0 0 0 0 0 0 0 0 0 0 0 0 0 0 0 0 0 0 0 0 0 0 0 0 0 0 0 0 0 0 0 0 0 0 0 0 0 0 0 0 0 0 0 0 0 0 0 0 20 30 40 36 87 105 107 214 309 242 190 139 280 202 46 65 289 256 397 594 805 961 1350 1053 838 682 532 231 199 154 78 85 5 0 0 0 0 
0 0 0 0 0 0 0 0 0 0 0 0 0 43 157 0 0 0 0 0 0 0 0 0 0 0 0 0 0 0 0 0 0 0 0 0 0 0 0 0 0 0 0 0 0 0 0 0 0 0 0 0 0 0 0 0 0 0 0 0 0 0 0 0 0 0 0 0 0 0 0 24 35 50 40 86 97 115 196 176 206 129 105 262 134 29 225 501 245 391 464 825 966 1326 1056 955 643 530 208 195 167 71 3 0 0 0 0 0 
0 0 0 0 0 0 0 0 0 0 0 0 0 83 124 0 0 0 0 0 0 0 0 0 0 0 0 0 0 0 0 0 0 0 0 0 0 0 0 0 0 0 0 0 0 0 0 0 0 0 0 0 0 0 0 0 0 0 0 0 0 0 0 0 0 0 0 0 0 0 0 22 22 41 45 77 93 95 84 152 67 86 114 90 54 21 94 188 166 157 299 493 615 612 619 537 531 477 205 163 123 49 8 0 0 0 0 0 
0 0 0 0 0 0 0 0 0 0 0 0 0 0 104 132 65 0 0 0 0 0 0 0 0 0 0 0 0 0 0 0 0 0 0 0 0 0 0 0 0 0 0 0 0 0 0 0 0 0 0 0 0 0 0 0 0 0 0 0 0 0 0 0 0 0 0 0 0 0 0 7 26 37 67 73 67 49 75 86 97 118 154 85 33 20 27 96 78 124 266 414 515 436 406 355 424 475 393 158 125 73 2 0 0 0 0 0 
0 0 0 0 0 0 0 0 0 0 0 0 0 0 0 173 181 0 0 0 0 0 0 0 0 0 0 0 0 0 0 0 0 0 0 0 0 0 0 0 0 0 0 0 0 0 0 0 0 0 0 0 0 0 0 0 0 0 0 0 0 0 0 0 0 0 0 0 0 0 0 14 29 32 50 49 43 31 64 48 66 107 139 125 25 20 23 38 68 106 189 274 465 487 319 290 286 283 267 253 149 48 0 0 0 0 0 0 
0 0 0 0 0 0 0 0 0 0 0 0 0 0 0 106 208 61 0 0 0 0 0 0 0 0 0 0 0 0 0 0 0 0 0 0 0 0 0 0 0 0 0 0 0 0 0 0 0 0 0 0 0 0 0 0 0 0 0 0 0 0 0 0 0 0 0 0 0 0 0 14 30 46 47 28 54 59 46 87 200 154 161 109 39 28 23 20 25 25 27 99 106 234 183 217 217 256 263 252 170 74 0 0 0 0 0 0 
0 0 0 0 0 0 0 0 0 0 0 0 0 0 0 0 33 139 132 96 0 0 0 0 0 0 0 0 0 0 0 0 0 0 0 0 0 0 0 0 0 0 0 12 0 0 0 0 0 0 0 0 0 0 0 0 0 0 0 0 0 0 0 0 0 0 0 0 0 0 0 0 29 33 47 30 54 28 31 117 93 136 146 177 113 50 32 25 22 24 27 68 134 134 168 124 180 260 181 153 188 77 0 0 0 0 0 0 
0 0 0 0 0 0 0 0 0 0 0 0 0 0 0 0 0 98 108 120 0 0 0 0 0 0 0 0 0 0 0 0 0 0 0 0 0 0 0 0 0 0 0 0 0 0 0 0 0 0 0 0 0 0 0 0 0 0 0 0 0 0 0 0 0 0 0 0 0 0 0 0 21 33 36 53 22 22 25 31 95 85 103 156 110 125 77 21 24 26 31 95 92 99 99 145 409 442 371 216 264 102 48 0 0 0 0 0 
0 0 0 0 0 0 0 0 0 0 0 0 0 0 0 0 0 52 65 44 41 0 0 0 0 0 0 0 0 0 0 0 0 0 0 0 0 0 0 0 0 0 0 0 0 41 0 0 0 0 0 0 0 0 0 0 0 0 0 0 0 0 0 0 0 0 0 0 0 0 0 0 5 7 13 12 39 24 40 22 114 288 144 153 134 161 179 56 26 35 35 42 47 88 248 446 261 262 278 145 109 56 36 0 0 0 0 0 
0 0 0 0 0 0 0 0 0 0 0 0 0 0 0 0 0 0 0 0 0 0 0 0 0 0 0 0 0 0 0 0 0 0 0 0 0 0 0 0 0 0 0 0 0 0 64 0 0 0 0 0 0 0 0 0 0 0 0 0 0 0 0 0 0 0 0 0 0 0 0 0 4 7 19 9 25 18 9 10 223 323 239 192 200 128 99 100 33 33 36 41 54 291 581 347 267 192 166 120 81 14 0 0 0 0 0 0 
