ncols         59
nrows         64
xllcorner     412432.33601038
yllcorner     9106708.627275
cellsize      1000
NODATA_value  -9999
358 347 335 325 358 376 404 442 469 488 548 575 578 664 690 779 814 850 964 951 975 1091 1164 1234 1366 1426 1562 1586 1571 1420 1370 1296 1095 986 924 836 789 751 659 615 545 517 484 432 405 393 351 352 287 288 260 195 185 171 181 151 164 141 147 
353 352 338 329 347 370 392 435 444 465 515 559 595 653 711 709 761 832 855 923 979 1114 1199 1266 1428 1553 1659 1677 1610 1455 1376 1275 1105 1051 985 862 810 763 664 617 541 509 479 447 459 437 333 332 289 230 226 196 187 173 160 157 147 153 136 
334 333 339 316 327 350 362 396 428 447 473 503 528 561 607 673 705 755 841 896 963 1134 1244 1359 1675 1790 2054 2101 1897 1543 1433 1320 1130 1043 993 875 815 754 651 614 544 506 478 432 439 412 346 298 274 227 214 185 182 173 164 156 149 137 140 
324 318 317 317 329 314 359 398 417 423 456 486 507 569 598 653 689 733 825 902 972 1102 1133 1289 1732 1943 2457 2367 1960 1642 1494 1319 1119 1049 977 865 796 734 638 601 534 504 473 417 414 369 313 296 268 236 228 193 183 173 162 155 149 143 138 
301 298 315 305 297 348 344 379 390 431 454 475 499 552 584 639 679 727 828 890 955 1119 1218 1293 1676 2038 2559 2314 2189 1611 1406 1277 1096 1018 949 817 765 703 626 578 512 482 446 403 385 364 315 292 277 243 225 197 185 172 154 151 141 137 129 
284 305 304 291 311 323 339 375 391 406 451 470 494 537 573 629 668 708 808 879 937 1066 1152 1244 1600 1811 2083 1919 1899 1574 1388 1237 1019 986 909 801 746 702 616 580 508 480 450 394 384 356 314 293 274 239 224 191 174 166 146 144 143 140 134 
283 277 292 280 314 323 341 367 383 399 440 460 479 533 554 623 654 700 796 837 901 1027 1124 1228 1465 1615 1672 1750 1635 1227 1292 1207 1035 960 852 789 742 697 612 572 503 473 443 391 371 351 308 283 265 234 215 187 171 159 149 142 143 140 128 
273 264 267 279 296 311 324 350 364 380 420 432 453 512 537 607 638 686 760 809 865 945 1037 1101 1254 1265 1266 1270 1278 1182 1081 1007 922 877 811 709 690 657 586 551 488 459 433 376 355 339 292 271 252 219 207 180 168 162 144 140 135 130 123 
261 252 265 271 289 304 306 336 354 370 406 423 452 500 533 593 628 668 735 771 826 924 1013 1053 1097 1191 1148 1166 1139 1092 1027 933 866 840 786 679 656 628 565 536 474 450 423 370 354 328 290 265 247 215 204 178 171 159 148 142 134 130 123 
255 254 257 263 279 284 303 330 345 362 389 415 440 492 524 579 609 640 712 750 778 884 925 1002 1111 1108 1070 1075 1092 1014 952 905 814 782 744 657 618 595 544 518 463 427 409 364 344 320 283 258 248 212 197 174 164 156 147 142 135 131 124 
250 242 244 248 264 274 285 310 323 339 375 405 422 477 499 537 560 590 663 671 704 811 831 848 870 892 911 902 922 872 834 793 735 697 669 598 567 541 492 474 430 409 389 347 333 310 263 251 230 198 189 168 161 156 142 139 135 126 125 
242 233 239 244 257 266 276 297 316 329 367 393 412 461 479 519 540 571 630 651 704 742 769 790 807 821 830 844 843 818 780 742 694 662 635 575 539 511 472 449 409 389 369 334 316 299 259 242 222 193 190 171 164 155 145 138 131 128 121 
236 241 227 232 252 259 268 285 300 311 366 388 399 437 460 498 519 549 613 637 664 689 716 731 745 766 767 784 777 765 734 697 650 626 596 553 522 502 447 435 396 372 352 322 310 289 257 239 221 195 180 164 158 152 143 134 131 123 119 
246 231 229 211 233 237 244 263 282 280 348 385 368 406 425 451 485 513 556 577 568 606 619 640 649 669 661 676 671 663 642 618 580 559 541 497 467 454 419 400 365 344 319 297 284 265 243 231 209 187 177 157 154 149 133 135 130 120 114 
354 261 226 225 227 229 234 245 256 265 317 337 356 386 408 446 457 483 526 525 529 570 586 592 608 621 621 628 622 612 600 592 542 519 507 471 448 427 399 382 333 329 310 282 268 259 234 220 205 182 172 164 151 143 130 129 126 118 112 
574 362 282 241 217 214 221 234 243 288 300 320 338 369 391 423 432 448 485 484 503 529 550 557 578 570 571 574 575 566 558 544 512 467 449 423 399 387 353 341 315 300 284 254 246 240 218 205 191 170 164 154 137 136 123 122 121 115 109 
621 507 403 332 289 237 215 212 227 250 271 289 307 337 357 372 388 390 416 427 443 463 480 480 491 502 484 479 491 481 477 470 443 431 420 393 381 365 337 324 299 284 267 241 232 223 205 197 191 168 152 153 135 130 118 119 114 112 111 
595 490 297 341 313 205 185 199 222 241 258 273 291 323 339 349 364 368 396 404 416 435 446 446 455 477 456 441 443 432 439 435 420 403 393 360 354 341 318 305 279 268 252 233 226 213 203 190 179 164 151 149 139 123 119 114 114 111 108 
384 406 403 303 238 186 168 192 201 213 243 250 261 290 297 311 322 329 345 358 364 379 383 390 396 397 394 387 379 370 363 363 360 347 333 309 308 295 274 269 253 235 225 210 209 196 186 176 172 154 148 142 131 124 116 116 111 103 102 
364 244 378 283 178 178 154 185 193 199 223 236 248 266 279 293 301 313 328 336 344 351 366 363 371 369 364 362 350 344 339 333 334 329 319 293 281 268 254 248 227 226 209 202 194 193 179 171 160 154 147 139 129 124 115 120 117 117 107 
427 206 358 283 191 163 147 172 180 194 214 223 239 253 261 274 282 291 303 310 320 331 342 342 344 343 342 339 328 318 309 309 310 308 292 272 262 252 230 225 215 207 207 186 188 184 168 167 160 144 141 136 125 121 114 112 119 114 106 
440 232 133 194 190 176 158 151 154 170 190 204 215 224 229 242 248 252 266 279 280 292 305 303 304 302 296 295 284 267 262 263 266 262 257 246 227 225 209 198 191 190 179 171 169 166 159 155 144 138 135 127 119 112 109 109 110 101 99 
224 142 123 121 121 100 113 142 148 164 190 200 210 211 218 224 238 239 247 257 262 271 279 280 286 278 280 274 259 245 239 249 247 242 240 227 222 211 199 193 179 176 171 165 159 159 148 151 143 135 130 127 113 110 110 110 101 101 99 
113 108 125 84 106 134 127 143 142 168 182 189 192 211 209 213 215 225 239 241 242 256 257 259 260 262 259 254 244 234 226 229 226 227 222 210 207 197 189 182 170 169 165 157 155 152 151 143 141 128 124 123 119 114 105 107 101 98 96 
111 98 113 121 128 133 137 135 144 147 168 167 180 184 185 185 194 193 197 210 218 225 221 227 224 226 223 219 210 207 195 191 195 196 193 191 187 179 168 163 160 160 158 145 140 140 135 134 125 122 115 113 114 106 114 106 102 99 105 
112 95 116 115 122 124 126 143 141 144 155 161 171 172 173 173 181 182 194 200 207 213 207 215 208 211 207 206 197 193 185 179 179 183 185 175 176 168 159 158 154 152 153 137 138 136 127 129 127 125 117 112 106 105 103 108 107 100 111 
100 75 107 114 124 123 123 129 135 142 152 155 163 163 164 164 168 174 185 195 195 200 199 196 194 197 195 189 188 179 177 172 171 178 169 165 164 163 157 150 145 146 147 142 139 149 145 140 128 122 119 109 116 104 104 100 99 97 100 
101 98 108 111 118 111 117 123 192 126 137 139 145 153 149 153 153 157 163 168 172 173 175 174 172 171 175 166 164 161 152 150 156 160 152 154 149 150 143 138 138 137 138 129 126 124 120 129 170 133 109 118 106 111 102 100 104 99 95 
101 94 103 107 112 107 113 111 119 121 130 133 136 140 144 142 147 152 153 158 160 160 161 155 158 161 159 156 152 146 151 141 147 147 147 144 142 144 135 140 130 131 135 133 124 125 120 120 156 112 116 122 107 111 107 106 106 101 97 
103 99 99 98 109 103 108 108 117 124 124 129 128 130 136 136 140 146 145 148 150 152 154 142 150 149 150 146 137 140 140 140 142 143 146 141 136 136 128 128 127 126 122 124 121 121 168 171 128 145 171 148 112 107 104 99 104 103 98 
91 85 87 87 94 99 98 100 104 107 116 116 118 121 124 128 124 127 134 132 135 133 137 132 131 133 132 129 125 125 129 123 177 218 146 135 133 134 127 124 121 119 120 124 118 121 130 159 142 160 151 130 110 101 99 100 101 102 101 
78 87 75 83 90 95 94 93 106 102 106 115 119 114 120 119 118 125 127 127 130 126 127 127 123 124 124 117 120 117 122 119 252 338 361 131 133 144 122 176 121 122 119 119 116 122 123 121 120 124 123 125 114 109 102 101 98 99 103 
106 93 79 60 82 83 81 94 89 88 96 104 102 99 101 106 103 112 112 112 110 110 110 109 109 107 106 104 90 109 108 110 132 196 301 200 153 157 200 274 187 167 131 132 131 132 124 136 140 137 143 153 114 111 100 101 112 140 111 
77 101 49 81 79 74 79 80 84 86 98 98 93 100 95 102 103 108 106 105 107 105 100 104 104 105 103 104 99 105 107 107 101 99 167 182 286 217 326 297 171 138 139 145 265 158 173 147 160 178 184 179 128 111 110 112 224 223 165 
76 67 70 69 73 69 86 81 90 110 90 87 93 97 95 97 99 100 90 99 99 100 93 97 96 96 93 95 99 110 104 105 94 95 148 401 351 283 270 188 177 203 168 151 225 298 257 245 318 213 218 408 355 214 264 287 254 229 204 
89 84 67 68 57 61 63 92 92 116 95 102 85 87 83 78 86 90 83 89 87 88 85 85 86 87 83 88 97 91 92 99 162 210 210 200 183 235 313 347 404 337 371 383 417 396 533 513 397 575 552 618 401 255 218 244 244 212 175 
83 56 47 65 58 61 116 128 108 135 97 90 79 82 77 81 80 89 82 84 82 84 84 78 78 80 84 80 83 83 92 87 100 120 106 237 319 281 509 486 299 287 254 293 266 315 448 711 696 610 476 417 341 225 213 242 220 211 204 
69 60 59 55 52 81 117 142 156 122 103 103 88 84 81 76 78 75 77 77 74 77 78 79 81 75 73 75 78 83 93 218 204 235 354 409 346 446 538 602 522 277 218 244 243 315 679 672 574 355 345 329 217 201 220 212 209 199 200 
60 71 53 51 49 69 87 85 99 138 99 134 76 70 72 66 70 70 68 72 64 66 68 64 63 65 85 191 108 251 312 280 264 277 260 355 360 378 466 554 378 306 230 306 339 426 343 454 285 211 236 228 215 201 190 213 192 213 189 
42 42 81 50 49 45 50 55 118 100 141 120 126 66 65 67 62 65 64 62 61 64 64 61 64 72 133 202 110 357 312 258 234 222 271 286 286 327 400 362 452 296 208 458 432 415 328 237 202 182 212 238 231 213 191 182 180 184 185 
52 46 73 75 37 42 42 73 97 117 122 119 73 63 62 63 57 61 60 57 59 58 65 58 91 162 247 175 272 391 306 248 157 194 195 199 245 232 225 274 360 245 305 324 298 278 242 192 178 170 187 181 168 179 189 203 183 191 181 
26 28 31 53 55 40 29 38 91 116 115 92 51 50 57 59 53 55 54 51 50 57 51 60 132 120 94 392 381 237 219 179 103 124 118 147 133 165 151 186 145 139 176 185 179 167 256 256 194 165 205 231 178 183 174 182 200 192 190 
26 26 28 34 68 70 46 67 85 106 78 50 51 49 48 54 53 53 50 47 46 54 55 57 61 71 104 355 344 212 174 149 99 106 120 163 139 157 197 173 134 149 176 165 173 204 251 237 235 153 184 210 241 214 190 177 185 200 222 
38 27 29 24 72 52 84 37 35 83 47 49 46 48 46 53 48 44 48 48 46 65 56 58 88 81 219 364 330 140 161 112 104 173 124 143 133 159 174 118 118 134 145 164 162 207 192 191 201 149 163 186 221 212 220 258 194 228 251 
28 36 67 84 21 34 35 39 37 31 38 41 42 44 39 41 41 39 41 39 44 119 119 57 243 368 372 314 222 230 234 210 129 190 107 147 174 197 199 156 187 139 135 133 154 174 174 192 183 145 181 193 204 198 219 310 297 334 356 
29 44 68 77 63 38 36 28 32 33 39 43 40 39 38 41 36 37 39 41 41 51 90 154 123 261 401 348 176 221 198 192 158 213 111 189 202 220 212 213 202 201 183 134 132 160 150 139 162 154 196 198 201 179 269 345 380 434 530 
57 58 29 22 27 23 32 32 27 26 33 35 31 27 33 33 29 39 32 37 38 120 210 280 414 486 352 155 224 224 192 170 192 172 202 203 208 201 211 205 200 197 200 178 169 183 178 173 147 157 162 160 170 182 276 354 435 355 386 
18 16 17 23 14 29 16 31 32 45 25 26 27 28 26 26 32 31 29 29 41 69 225 328 412 370 246 175 214 197 163 166 176 171 195 208 214 196 200 201 195 194 200 184 189 175 183 173 167 168 170 178 169 187 268 353 428 288 375 
11 7 27 22 22 27 30 21 51 60 23 27 27 25 24 25 34 33 33 30 37 231 240 340 356 292 208 111 189 178 145 141 153 170 173 193 184 190 187 200 188 186 192 198 185 172 192 189 177 171 168 180 175 193 219 251 359 305 333 
16 14 20 8 23 25 24 23 34 27 22 22 21 20 20 19 30 27 22 20 26 86 221 217 105 226 176 124 150 131 125 132 146 163 160 188 179 175 178 180 181 192 197 195 198 201 199 205 191 175 185 185 193 189 199 229 249 237 353 
7 8 15 7 17 16 19 16 16 23 19 18 22 20 22 23 23 21 24 82 30 160 166 237 83 192 156 144 87 113 150 133 139 145 167 183 171 173 186 178 177 193 191 185 183 192 205 196 191 180 186 184 194 197 207 214 219 249 327 
4 14 3 17 18 15 13 16 12 17 18 14 14 19 16 20 24 57 116 102 91 193 227 255 120 93 82 145 136 117 106 139 157 160 171 175 165 174 183 177 179 184 186 172 181 185 190 186 190 188 197 194 201 208 207 212 215 266 282 
7 1 5 11 6 15 11 13 13 16 11 14 16 15 19 15 45 154 236 208 220 248 315 392 300 274 213 111 102 129 110 128 147 149 158 161 173 166 164 174 188 186 172 180 180 187 190 200 203 190 179 178 197 205 201 210 221 257 295 
1 5 4 9 9 10 11 10 12 8 16 12 15 13 20 33 265 381 406 399 416 374 363 366 368 345 367 126 85 123 138 142 149 146 166 157 172 159 173 173 178 173 163 189 180 191 183 193 195 184 176 187 198 193 202 211 215 297 314 
0 0 8 4 5 12 7 5 6 6 9 7 11 31 46 94 376 383 381 376 367 353 379 377 377 350 355 158 120 121 127 146 134 152 149 158 155 157 168 167 171 163 161 170 166 174 195 186 188 176 174 183 183 191 206 211 218 322 326 
0 0 0 0 0 4 8 2 2 4 13 5 14 335 323 314 372 370 350 333 318 332 315 323 327 326 340 286 175 150 132 129 138 145 150 179 164 175 174 175 152 155 173 163 157 168 172 163 164 179 177 184 184 195 218 278 266 364 373 
0 0 0 0 0 0 0 0 3 3 12 5 6 227 243 231 342 341 331 333 295 293 310 321 316 321 297 319 282 242 278 145 166 154 163 166 177 172 171 161 137 172 170 159 151 166 157 159 146 163 180 167 189 234 253 286 313 356 413 
0 0 0 0 0 0 0 0 0 0 7 9 10 68 132 162 320 304 316 311 314 268 312 309 296 300 291 314 328 320 311 258 178 176 176 191 188 172 169 162 157 157 162 147 149 147 159 159 172 173 145 169 173 218 267 284 312 348 359 
0 0 0 0 0 0 0 0 0 0 0 0 0 0 0 24 251 252 248 277 291 300 283 274 295 312 277 296 299 299 316 311 292 293 287 267 224 218 180 154 129 158 141 133 140 142 150 159 172 180 162 171 219 204 299 301 325 339 352 
0 0 0 0 0 0 0 0 0 0 0 0 0 0 0 0 175 225 231 251 254 289 280 259 298 300 299 278 294 311 310 313 279 279 285 270 276 226 211 182 154 162 173 161 164 152 161 163 177 211 235 212 206 245 269 306 299 341 370 
0 0 0 0 0 0 0 0 0 0 0 0 0 0 0 0 128 105 213 169 193 241 229 254 279 263 266 275 280 268 286 276 303 318 315 297 298 286 272 259 212 188 200 228 221 233 207 232 245 249 276 274 285 305 286 289 302 320 339 
0 0 0 0 0 0 0 0 0 0 0 0 0 0 0 0 0 97 190 180 206 206 214 237 241 256 273 275 290 238 255 260 290 304 294 299 288 282 253 253 230 229 240 272 233 235 250 251 245 274 269 276 326 319 279 307 277 332 336 
0 0 0 0 0 0 0 0 0 0 0 0 0 0 0 0 0 0 106 184 184 190 200 201 216 225 217 265 260 274 246 250 292 300 301 277 256 273 252 246 243 257 242 269 253 249 273 271 278 263 267 278 313 323 295 295 273 337 334 
0 0 0 0 0 0 0 0 0 0 0 0 0 0 0 0 0 0 0 0 0 52 125 103 171 192 183 215 215 204 247 231 221 227 224 250 211 233 243 224 232 222 241 272 265 285 287 290 294 312 274 295 282 303 318 311 315 331 339 
