ncols         150
nrows         144
xllcorner     338149.66937
yllcorner     9069010.11664
cellsize      1342
NODATA_value  -9999
-9999 -9999 -9999 -9999 -9999 -9999 -9999 -9999 -9999 -9999 -9999 -9999 -9999 -9999 -9999 -9999 -9999 -9999 -9999 -9999 -9999 -9999 -9999 -9999 -9999 -9999 -9999 -9999 -9999 -9999 -9999 -9999 -9999 -9999 -9999 -9999 -9999 -9999 -9999 -9999 -9999 -9999 -9999 -9999 -9999 -9999 -9999 -9999 -9999 -9999 -9999 -9999 -9999 -9999 -9999 -9999 -9999 -9999 -9999 -9999 -9999 -9999 -9999 -9999 -9999 -9999 -9999 -9999 -9999 -9999 -9999 -9999 -9999 -9999 -9999 -9999 -9999 -9999 -9999 -9999 -9999 -9999 -9999 -9999 -9999 -9999 -9999 -9999 -9999 -9999 -9999 3 3 23 8 18 26 40 50 78 102 111 94 151 227 309 347 300 395 467 472 467 489 478 467 329 308 234 195 163 141 121 74 61 47 32 19 9 5 11 6 1 1 1 1 1 1 1 1 -9999 -9999 -9999 -9999 -9999 -9999 -9999 -9999 -9999 -9999 -9999
-9999 -9999 -9999 -9999 -9999 -9999 -9999 -9999 -9999 -9999 -9999 -9999 -9999 -9999 -9999 -9999 -9999 -9999 -9999 -9999 -9999 -9999 -9999 -9999 -9999 -9999 -9999 -9999 -9999 -9999 -9999 -9999 -9999 -9999 -9999 -9999 -9999 -9999 -9999 -9999 -9999 -9999 -9999 -9999 -9999 -9999 -9999 -9999 -9999 -9999 -9999 -9999 -9999 -9999 -9999 -9999 -9999 -9999 -9999 -9999 -9999 -9999 -9999 -9999 -9999 -9999 -9999 -9999 -9999 -9999 -9999 -9999 -9999 -9999 -9999 -9999 -9999 -9999 -9999 -9999 -9999 -9999 -9999 -9999 -9999 -9999 -9999 -9999 -9999 -9999 3 1 5 6 2 8 25 31 56 64 92 101 124 132 188 261 298 270 331 338 361 395 358 378 372 280 261 223 179 159 131 109 67 56 36 29 18 15 6 6 7 6 1 1 1 1 1 1 1 1 1 2 1 4 2 7 -9999 -9999 -9999 -9999
-9999 -9999 -9999 -9999 -9999 -9999 -9999 -9999 -9999 -9999 -9999 -9999 -9999 -9999 -9999 -9999 -9999 -9999 -9999 -9999 -9999 -9999 -9999 -9999 -9999 -9999 -9999 -9999 -9999 -9999 -9999 -9999 -9999 -9999 -9999 -9999 -9999 -9999 -9999 -9999 -9999 -9999 -9999 -9999 -9999 -9999 -9999 -9999 -9999 -9999 -9999 -9999 -9999 -9999 -9999 -9999 -9999 -9999 -9999 -9999 -9999 -9999 -9999 -9999 -9999 -9999 -9999 -9999 -9999 -9999 -9999 -9999 -9999 -9999 -9999 -9999 -9999 -9999 -9999 -9999 -9999 -9999 -9999 -9999 -9999 -9999 -9999 -9999 -9999 2 0 4 1 4 3 4 6 34 36 39 38 63 86 83 153 150 211 170 252 234 233 284 288 258 244 220 214 230 178 103 97 75 54 43 30 26 16 8 5 10 6 8 1 7 1 1 1 5 6 7 7 0 1 6 7 6 5 8 -9999 -9999
-9999 -9999 -9999 -9999 -9999 -9999 -9999 -9999 -9999 -9999 -9999 -9999 -9999 -9999 -9999 -9999 -9999 -9999 -9999 -9999 -9999 -9999 -9999 -9999 -9999 -9999 -9999 -9999 -9999 -9999 -9999 -9999 -9999 -9999 -9999 -9999 -9999 -9999 -9999 -9999 -9999 -9999 -9999 -9999 -9999 -9999 -9999 -9999 -9999 -9999 -9999 -9999 -9999 -9999 -9999 -9999 -9999 -9999 -9999 -9999 -9999 -9999 -9999 -9999 -9999 -9999 -9999 -9999 -9999 -9999 -9999 -9999 -9999 -9999 -9999 -9999 -9999 -9999 -9999 -9999 -9999 -9999 -9999 -9999 -9999 -9999 -9999 -9999 0 1 1 0 2 2 4 2 -1 26 27 27 55 50 43 66 107 111 167 145 204 197 201 225 225 201 205 199 231 181 145 97 73 78 46 34 25 16 12 12 6 4 5 5 8 6 3 5 8 7 8 9 11 7 7 9 9 15 11 12 16 20
-9999 -9999 -9999 -9999 -9999 -9999 -9999 -9999 -9999 -9999 -9999 -9999 -9999 -9999 -9999 -9999 -9999 -9999 -9999 -9999 -9999 -9999 -9999 -9999 -9999 -9999 -9999 -9999 -9999 -9999 -9999 -9999 -9999 -9999 -9999 -9999 -9999 -9999 -9999 -9999 -9999 -9999 -9999 -9999 -9999 -9999 -9999 -9999 -9999 -9999 -9999 -9999 -9999 -9999 -9999 -9999 -9999 -9999 -9999 -9999 -9999 -9999 -9999 -9999 -9999 -9999 -9999 -9999 -9999 -9999 -9999 -9999 -9999 -9999 -9999 -9999 -9999 -9999 -9999 -9999 -9999 -9999 -9999 -9999 3 -9999 -9999 1 1 1 4 1 4 1 2 4 2 18 23 32 54 50 24 30 76 104 133 125 163 170 180 169 170 157 160 190 226 155 153 81 75 51 34 33 19 20 9 7 7 7 7 4 5 9 8 6 7 10 7 13 17 10 12 13 15 17 17 20 19 21
-9999 -9999 -9999 -9999 -9999 -9999 -9999 -9999 -9999 -9999 -9999 -9999 -9999 -9999 -9999 -9999 -9999 -9999 -9999 -9999 -9999 -9999 -9999 -9999 -9999 -9999 -9999 -9999 -9999 -9999 -9999 -9999 -9999 -9999 -9999 -9999 -9999 -9999 -9999 -9999 -9999 -9999 -9999 -9999 -9999 -9999 -9999 -9999 -9999 -9999 -9999 -9999 -9999 -9999 -9999 -9999 -9999 -9999 -9999 -9999 -9999 -9999 -9999 -9999 -9999 -9999 -9999 -9999 -9999 -9999 -9999 -9999 -9999 -9999 -9999 -9999 -9999 -9999 -9999 -9999 -9999 -9999 -9999 -9999 4 4 4 1 1 1 4 -1 1 3 2 2 4 15 15 9 26 30 27 38 58 65 91 100 121 126 115 104 112 122 140 229 258 201 137 74 42 44 25 19 13 11 5 10 4 4 2 4 9 13 9 9 10 16 18 14 22 20 17 18 22 21 26 19 16 20
-9999 -9999 -9999 -9999 -9999 -9999 -9999 -9999 -9999 -9999 -9999 -9999 -9999 -9999 -9999 -9999 -9999 -9999 -9999 -9999 -9999 -9999 -9999 -9999 -9999 -9999 -9999 -9999 -9999 -9999 -9999 -9999 -9999 -9999 -9999 -9999 -9999 -9999 -9999 -9999 -9999 -9999 -9999 -9999 -9999 -9999 -9999 -9999 -9999 -9999 -9999 -9999 -9999 -9999 -9999 -9999 -9999 -9999 -9999 -9999 -9999 -9999 -9999 -9999 -9999 -9999 -9999 -9999 -9999 -9999 -9999 -9999 -9999 -9999 -9999 -9999 -9999 -9999 -9999 -9999 -9999 -9999 -9999 -9999 5 3 3 2 1 2 7 0 2 4 0 2 3 7 12 7 10 17 23 25 48 60 81 89 98 104 97 88 85 111 75 218 280 217 128 71 50 45 19 21 14 12 7 4 1 9 4 7 12 12 14 17 9 16 20 19 25 19 18 21 24 29 33 34 33 22
-9999 -9999 -9999 -9999 -9999 -9999 -9999 -9999 -9999 -9999 -9999 -9999 -9999 -9999 -9999 -9999 -9999 -9999 -9999 -9999 -9999 -9999 -9999 -9999 -9999 -9999 -9999 -9999 -9999 -9999 -9999 -9999 -9999 -9999 -9999 -9999 -9999 -9999 -9999 -9999 -9999 -9999 -9999 -9999 -9999 -9999 -9999 -9999 -9999 -9999 -9999 -9999 -9999 -9999 -9999 -9999 -9999 -9999 -9999 -9999 -9999 -9999 -9999 -9999 -9999 -9999 -9999 -9999 -9999 -9999 -9999 -9999 -9999 -9999 -9999 -9999 -9999 -9999 -9999 -9999 -9999 -9999 -9999 -9999 -9999 -9999 2 2 5 2 3 2 1 6 1 4 3 10 10 5 9 9 15 22 34 47 61 61 60 69 70 57 58 62 40 245 308 242 123 58 40 28 15 11 7 5 7 5 9 9 9 10 12 11 16 12 16 20 30 25 25 29 30 44 44 36 52 41 42 42
-9999 -9999 -9999 -9999 -9999 -9999 -9999 -9999 -9999 -9999 -9999 -9999 -9999 -9999 -9999 -9999 -9999 -9999 -9999 -9999 -9999 -9999 -9999 -9999 -9999 -9999 -9999 -9999 -9999 -9999 -9999 -9999 -9999 -9999 -9999 -9999 -9999 -9999 -9999 -9999 -9999 -9999 -9999 -9999 -9999 -9999 -9999 -9999 -9999 -9999 -9999 -9999 -9999 -9999 -9999 -9999 -9999 -9999 -9999 -9999 -9999 -9999 -9999 -9999 -9999 -9999 -9999 -9999 -9999 -9999 -9999 -9999 -9999 -9999 -9999 -9999 -9999 -9999 -9999 -9999 -9999 -9999 -9999 -9999 -9999 -9999 0 3 3 4 4 2 1 2 2 7 1 5 9 5 9 13 12 14 30 33 44 47 48 49 54 46 52 59 33 107 186 121 82 32 35 27 18 10 7 5 7 8 8 10 9 10 16 16 21 17 20 26 27 29 26 37 33 45 41 43 47 48 56 44
-9999 -9999 -9999 -9999 -9999 -9999 -9999 -9999 -9999 -9999 -9999 -9999 -9999 -9999 -9999 -9999 -9999 -9999 -9999 -9999 -9999 -9999 -9999 -9999 -9999 -9999 -9999 -9999 -9999 -9999 -9999 -9999 -9999 -9999 -9999 -9999 -9999 -9999 -9999 -9999 -9999 -9999 -9999 -9999 -9999 -9999 -9999 -9999 -9999 -9999 -9999 -9999 -9999 -9999 -9999 -9999 -9999 -9999 -9999 -9999 -9999 -9999 -9999 -9999 -9999 -9999 -9999 -9999 -9999 -9999 -9999 -9999 -9999 -9999 -9999 -9999 -9999 -9999 -9999 -9999 -9999 -9999 -9999 -9999 -9999 0 0 2 4 2 1 3 4 5 2 2 3 4 7 6 3 8 5 7 14 18 28 37 35 29 25 24 23 25 19 36 44 37 27 13 10 11 6 5 4 8 12 8 16 15 10 18 19 21 25 24 22 32 32 40 39 32 35 57 51 48 71 61 69 57
-9999 -9999 -9999 -9999 -9999 -9999 -9999 -9999 -9999 -9999 -9999 -9999 -9999 -9999 -9999 -9999 -9999 -9999 -9999 -9999 -9999 -9999 -9999 -9999 -9999 -9999 -9999 -9999 -9999 -9999 -9999 -9999 -9999 -9999 -9999 -9999 -9999 -9999 -9999 -9999 -9999 -9999 -9999 -9999 -9999 -9999 -9999 -9999 -9999 -9999 -9999 -9999 -9999 -9999 -9999 -9999 -9999 -9999 -9999 -9999 -9999 -9999 -9999 -9999 -9999 -9999 -9999 -9999 -9999 -9999 -9999 -9999 -9999 -9999 -9999 -9999 -9999 -9999 -9999 -9999 -9999 -9999 -9999 -9999 0 2 0 2 2 1 2 4 1 2 1 2 4 2 2 4 4 8 7 7 12 14 26 31 30 22 22 20 15 15 18 16 23 20 15 10 7 6 6 3 7 11 13 9 12 13 15 16 18 24 27 30 31 36 42 35 39 34 50 68 70 59 71 66 67 59
2 -9999 -9999 -9999 -9999 -9999 -9999 -9999 -9999 -9999 -9999 -9999 -9999 -9999 -9999 -9999 -9999 -9999 -9999 -9999 -9999 -9999 -9999 -9999 -9999 -9999 -9999 -9999 -9999 -9999 -9999 -9999 -9999 -9999 -9999 -9999 -9999 -9999 -9999 -9999 -9999 -9999 -9999 -9999 -9999 -9999 -9999 -9999 -9999 -9999 -9999 -9999 -9999 -9999 -9999 -9999 -9999 -9999 -9999 -9999 -9999 -9999 -9999 -9999 -9999 -9999 -9999 -9999 -9999 -9999 -9999 -9999 -9999 -9999 -9999 -9999 -9999 -9999 -9999 -9999 -9999 -9999 -9999 -9999 3 -2 4 -1 4 3 2 2 2 2 4 3 4 4 5 4 4 1 8 4 7 8 14 22 23 19 18 13 8 11 15 9 9 6 5 5 6 5 9 10 9 13 10 12 20 22 18 20 23 31 35 31 40 36 52 48 54 56 36 85 94 93 112 95 95 80
6 2 -9999 -9999 -9999 -9999 -9999 -9999 -9999 -9999 -9999 -9999 -9999 -9999 -9999 -9999 -9999 -9999 -9999 -9999 -9999 -9999 -9999 -9999 -9999 -9999 -9999 -9999 -9999 -9999 -9999 -9999 -9999 -9999 -9999 -9999 -9999 -9999 -9999 -9999 -9999 -9999 -9999 -9999 -9999 -9999 -9999 -9999 -9999 -9999 -9999 -9999 -9999 -9999 -9999 -9999 -9999 -9999 -9999 -9999 -9999 -9999 -9999 -9999 -9999 -9999 -9999 -9999 -9999 -9999 -9999 -9999 -9999 -9999 -9999 -9999 -9999 -9999 -9999 -9999 -9999 -9999 1 3 0 0 1 1 3 2 3 2 2 2 3 2 3 4 5 6 6 4 3 8 3 5 13 11 16 16 13 15 14 8 8 7 4 6 -3 2 4 5 7 9 9 13 12 14 17 19 24 22 25 34 34 42 44 52 60 49 70 72 48 52 50 66 94 110 87 93
4 3 3 -9999 -9999 -9999 -9999 -9999 -9999 -9999 -9999 -9999 -9999 -9999 -9999 -9999 -9999 -9999 -9999 -9999 -9999 -9999 -9999 -9999 -9999 -9999 -9999 -9999 -9999 -9999 -9999 -9999 -9999 -9999 -9999 -9999 -9999 -9999 -9999 -9999 -9999 -9999 -9999 -9999 -9999 -9999 -9999 -9999 -9999 -9999 -9999 -9999 -9999 -9999 -9999 -9999 -9999 -9999 -9999 -9999 -9999 -9999 -9999 -9999 -9999 -9999 -9999 -9999 -9999 -9999 -9999 -9999 -9999 -9999 -9999 -9999 -9999 -9999 -9999 -9999 -9999 -9999 2 4 1 5 1 2 3 2 4 5 3 4 5 4 2 3 4 3 4 4 3 3 5 6 7 10 7 13 9 5 9 9 5 2 -6 4 2 6 9 10 12 9 12 16 27 17 23 24 32 31 35 34 40 45 55 71 59 62 97 53 60 53 63 52 59 67 88 69
4 4 4 3 3 4 3 6 4 3 -9999 -9999 -9999 -9999 -9999 -9999 -9999 -9999 -9999 -9999 -9999 -9999 -9999 -9999 -9999 -9999 -9999 -9999 -9999 -9999 -9999 -9999 -9999 -9999 -9999 -9999 -9999 -9999 -9999 -9999 -9999 -9999 -9999 -9999 -9999 -9999 -9999 -9999 -9999 -9999 -9999 -9999 3 3 -9999 -9999 -9999 -9999 -9999 -9999 -9999 -9999 -9999 -9999 -9999 -9999 -9999 -9999 -9999 -9999 -9999 -9999 -9999 -9999 -9999 -9999 -9999 -9999 -9999 -9999 -9999 -9999 1 2 3 3 4 5 2 3 2 3 2 4 5 6 2 8 5 4 4 4 3 5 5 4 5 9 3 6 7 5 7 8 4 5 4 5 3 6 9 8 14 10 19 18 22 23 30 30 37 37 43 41 59 52 58 60 72 68 72 56 61 67 81 57 86 98 87 95
9 7 7 1 3 2 2 1 1 2 3 3 -9999 -9999 -9999 -9999 -9999 -9999 -9999 -9999 -9999 -9999 -9999 -9999 -9999 -9999 -9999 -9999 -9999 -9999 -9999 -9999 -9999 -9999 -9999 -9999 -9999 -9999 -9999 -9999 -9999 -9999 -9999 -9999 -9999 -9999 -9999 -9999 -9999 -9999 -9999 -9999 5 3 1 1 -9999 -9999 -9999 -9999 -9999 -9999 -9999 -9999 -9999 -9999 -9999 -9999 -9999 -9999 -9999 -9999 -9999 -9999 -9999 -9999 -9999 -9999 -9999 -9999 -9999 2 1 1 2 3 3 3 3 3 3 3 3 4 3 4 4 6 6 4 6 7 3 8 4 6 7 9 6 6 6 6 6 7 5 6 5 4 2 7 8 12 17 15 19 17 23 23 27 34 34 41 53 69 61 62 81 65 87 70 75 68 62 66 90 105 117 123 116 101
11 8 11 6 3 5 3 6 4 5 6 7 3 2 2 3 0 -9999 -9999 -9999 -9999 -9999 -9999 -9999 -9999 -9999 -9999 -9999 -9999 -9999 -9999 -9999 -9999 -9999 -9999 -9999 -9999 -9999 -9999 -9999 -9999 -9999 -9999 -9999 -9999 -9999 -9999 -9999 -9999 -9999 1 2 3 3 0 7 2 -9999 -9999 -9999 -9999 -9999 -9999 -9999 -9999 -9999 -9999 -9999 -9999 -9999 -9999 -9999 -9999 -9999 -9999 -9999 -9999 -9999 -9999 -9999 2 2 5 2 3 1 4 4 5 4 4 4 7 3 6 4 4 4 3 6 5 5 2 5 6 6 8 6 5 5 5 8 6 6 6 5 5 8 4 8 14 18 19 20 22 22 35 36 47 70 62 43 55 61 87 93 99 101 115 121 135 131 149 165 239 275 172 199 205 150
12 9 9 4 5 4 6 4 7 5 5 7 4 4 3 2 4 2 1 -9999 -9999 -9999 -9999 -9999 -9999 -9999 -9999 -9999 -9999 -9999 -9999 -9999 -9999 -9999 -9999 -9999 -9999 -9999 -9999 -9999 -9999 -9999 -9999 -9999 -9999 -9999 -9999 -9999 -9999 1 4 3 6 3 8 1 1 -9999 -9999 -9999 -9999 -9999 -9999 -9999 -9999 -9999 -9999 -9999 -9999 -9999 -9999 -9999 -9999 -9999 -9999 -9999 -9999 -9999 -9999 -9999 0 1 1 2 4 4 4 3 3 8 6 7 6 5 8 3 6 4 6 9 5 6 6 11 10 11 6 7 5 6 3 5 5 4 3 5 1 6 11 10 14 12 22 23 30 29 50 60 58 65 73 54 135 103 118 112 86 150 128 149 120 109 116 138 237 212 174 235 191 213
11 8 8 5 4 11 6 9 5 6 7 9 4 4 9 7 8 4 4 3 2 22 3 -9999 -9999 -9999 -9999 -9999 -9999 -9999 -9999 -9999 -9999 -9999 -9999 -9999 -9999 -9999 -9999 -9999 -9999 -9999 -9999 -9999 -9999 3 4 3 6 8 4 13 10 11 4 2 1 1 -9999 -9999 -9999 -9999 -9999 -9999 -9999 -9999 -9999 -9999 -9999 -9999 -9999 -9999 -9999 -9999 -9999 -9999 -9999 -9999 -9999 4 0 0 3 4 2 1 2 3 4 5 7 7 10 4 5 5 10 8 6 5 7 7 8 7 9 7 7 6 6 4 6 7 6 4 6 4 6 10 11 21 19 20 27 31 40 45 75 124 101 83 137 160 258 222 253 161 128 205 268 237 169 159 131 153 207 198 143 150 166 163
11 11 6 4 3 8 11 10 5 8 12 9 6 10 5 5 10 7 5 3 3 4 3 3 2 2 -9999 -9999 -9999 -9999 -9999 -9999 -9999 -9999 -9999 -9999 -9999 -9999 -9999 -9999 -9999 5 4 6 5 5 4 9 10 11 7 12 7 14 3 3 1 3 1 -9999 -9999 -9999 -9999 -9999 -9999 -9999 -9999 -9999 -9999 -9999 -9999 -9999 -9999 -9999 -9999 -9999 -9999 -9999 -9999 0 0 2 2 2 3 3 3 4 4 7 5 7 7 6 5 6 5 6 6 8 4 11 7 7 5 6 7 8 6 7 11 6 6 5 5 6 5 13 15 19 20 24 31 36 63 100 151 120 167 164 207 175 247 257 264 288 258 223 251 166 179 158 155 164 178 179 132 115 153 153
16 14 9 11 6 7 11 10 12 6 14 6 11 10 7 13 24 38 40 33 72 40 39 47 40 7 23 28 10 9 33 44 51 58 45 37 2 15 3 6 2 7 2 5 6 5 8 6 13 12 14 11 12 8 7 9 6 5 1 1 1 1 1 -9999 -9999 -9999 -9999 -9999 -9999 -9999 -9999 -9999 -9999 -9999 -9999 -9999 -9999 -9999 0 0 0 3 8 4 2 7 5 3 5 7 7 7 6 8 9 7 5 9 7 10 5 8 11 11 6 3 6 7 6 8 6 4 7 15 15 16 33 24 29 36 38 37 45 84 225 166 255 266 272 247 339 277 220 191 210 219 238 202 172 166 154 111 140 126 101 109 109 121 110 132
15 9 9 10 10 13 10 10 14 8 10 13 12 16 21 48 45 62 74 62 79 66 55 69 31 103 96 157 60 64 86 131 58 48 53 60 55 53 35 6 3 4 3 10 7 8 6 6 15 12 10 14 6 5 8 5 4 5 2 6 1 1 1 4 -9999 -9999 -9999 -9999 -9999 -9999 -9999 -9999 -9999 -9999 -9999 -9999 -9999 -9999 0 3 5 5 6 4 2 2 4 4 3 11 9 5 6 7 8 8 6 10 5 7 8 8 9 12 9 11 11 7 6 8 8 12 14 27 61 120 136 140 108 125 65 61 84 134 155 193 273 336 270 225 345 263 243 223 214 260 241 198 163 163 118 140 103 108 92 119 100 115 119 118
9 11 8 7 10 8 14 15 8 9 10 9 19 14 32 44 38 40 73 96 93 69 86 99 79 76 160 246 228 219 207 162 190 222 68 58 33 41 57 27 16 10 12 10 8 12 6 8 17 12 18 9 11 8 12 11 6 5 5 4 2 1 1 1 1 1 2 -9999 -9999 -9999 -9999 -9999 6 4 5 -9999 4 3 6 6 2 4 4 1 4 5 4 4 4 5 6 8 10 9 5 11 11 8 8 8 9 12 11 11 10 10 10 9 11 13 59 166 229 193 179 289 293 246 251 158 142 250 170 197 334 322 357 348 262 277 282 324 308 239 225 220 197 213 196 152 146 121 134 117 104 89 103 100 105 106
12 12 11 8 11 8 13 15 12 19 15 14 17 19 26 22 45 69 68 108 91 85 73 71 94 155 145 157 189 198 244 247 293 309 226 162 49 48 45 27 42 13 15 13 11 9 8 11 15 14 14 11 11 15 9 8 11 4 11 5 4 4 4 3 7 1 1 1 2 2 7 5 4 6 6 4 6 3 4 8 8 7 4 7 6 3 6 2 4 4 5 7 8 9 11 8 12 11 9 7 10 13 13 10 9 7 11 13 51 126 201 230 274 255 214 269 306 316 229 232 201 248 262 346 401 451 414 385 276 269 236 224 225 212 211 189 189 178 172 177 107 121 116 115 106 90 94 90 99 95
15 12 10 13 7 7 10 19 14 19 17 22 21 25 26 41 64 75 104 117 127 103 126 89 101 143 138 180 169 198 226 212 227 247 283 260 219 85 47 42 26 19 20 12 13 12 14 13 15 20 19 18 12 12 6 6 7 9 16 30 16 6 10 3 20 2 6 1 3 6 6 9 7 11 7 7 6 6 9 10 3 7 7 6 3 10 5 9 6 7 6 8 6 10 7 8 7 9 10 10 12 14 15 12 115 39 110 121 187 199 197 288 315 260 298 341 334 299 264 251 340 331 412 490 479 445 414 330 284 295 258 258 203 204 208 210 181 106 106 140 129 95 106 102 113 99 102 90 95 86
16 13 12 12 11 13 32 35 23 19 31 35 46 52 48 71 135 135 138 161 160 197 142 218 184 250 213 238 262 207 185 196 210 192 184 162 175 187 190 134 134 73 41 56 20 17 15 24 17 19 13 17 20 14 13 13 46 27 34 36 91 97 49 46 29 37 33 13 3 5 7 11 14 8 7 4 7 13 8 15 10 6 8 6 6 7 4 5 8 6 8 5 5 11 8 7 9 11 8 11 12 15 11 27 148 133 142 147 197 246 199 306 331 277 329 310 344 252 195 164 225 248 281 334 339 315 375 340 247 252 237 227 207 206 190 167 140 117 97 111 109 103 91 113 91 84 84 94 99 84
15 17 19 31 57 48 50 37 21 23 38 49 61 61 73 74 111 156 167 187 209 158 187 228 204 298 241 281 329 243 198 176 215 204 189 169 173 144 103 82 96 41 169 134 38 16 19 19 20 21 20 20 22 13 14 28 39 40 66 53 77 62 79 84 89 57 81 50 39 27 19 9 30 14 9 6 10 8 14 16 9 11 7 7 6 10 10 6 8 7 6 7 14 9 10 7 9 13 9 15 13 18 12 14 131 111 101 154 221 196 217 215 239 169 142 173 122 95 87 131 134 176 218 241 283 260 256 293 244 207 196 195 184 164 165 161 165 96 86 103 90 91 87 108 87 83 79 85 96 93
25 16 16 19 34 40 49 42 43 36 71 77 101 103 126 77 127 219 223 248 256 323 225 352 314 367 303 312 323 339 280 266 272 257 209 246 296 286 304 220 144 291 326 104 95 45 25 25 23 29 67 67 85 67 105 89 102 79 108 93 98 126 120 135 134 158 171 102 58 67 17 44 88 16 13 12 16 14 14 20 15 10 9 11 8 11 12 8 8 6 8 12 7 7 7 8 7 9 11 10 14 14 17 17 31 64 147 72 109 78 59 38 34 42 54 43 61 55 56 61 79 104 105 123 121 132 109 108 160 113 134 153 146 132 126 116 91 81 74 87 78 84 78 87 90 81 82 76 82 79
23 18 22 18 44 52 59 62 47 51 87 109 122 151 161 141 109 218 253 270 293 349 259 359 312 336 337 355 354 380 273 290 286 243 251 266 270 277 248 147 242 290 339 75 151 70 44 28 30 44 45 44 81 100 66 41 61 55 64 89 108 110 117 184 202 167 198 147 71 67 17 54 91 79 36 23 28 21 23 16 13 19 18 9 10 8 11 12 9 9 7 7 10 7 9 13 8 10 11 12 9 17 17 19 32 22 21 24 42 32 31 20 32 37 32 35 55 44 44 58 78 81 107 84 104 111 99 95 119 78 108 126 127 125 90 90 77 71 77 77 77 77 75 88 93 86 82 74 79 73
22 21 19 31 47 60 93 91 107 86 115 151 171 207 224 192 214 314 289 347 343 386 354 363 420 450 393 409 373 374 386 367 305 310 290 293 246 291 271 327 438 474 291 304 288 104 67 66 113 72 80 80 49 54 89 80 90 102 130 104 106 182 187 183 184 214 202 130 188 67 137 48 137 110 127 121 31 25 26 19 22 18 21 14 13 12 11 10 13 10 18 7 8 9 17 10 14 15 14 12 14 16 16 20 20 18 21 22 19 24 22 21 28 26 28 27 29 36 41 59 70 70 72 77 75 91 85 70 63 108 120 94 87 104 75 77 65 65 68 65 80 72 68 75 73 72 86 90 71 75
25 24 22 27 49 65 98 106 135 115 121 157 237 256 289 252 273 368 311 302 395 404 419 410 389 477 403 434 415 410 423 490 483 416 345 329 431 481 473 313 448 431 385 422 261 119 89 53 61 147 120 120 55 65 82 101 146 200 225 150 129 145 230 236 228 236 211 161 203 51 177 63 106 162 126 98 56 38 35 24 23 27 21 16 15 15 17 14 13 16 10 10 10 16 13 12 18 13 17 14 11 16 14 16 17 17 19 22 22 22 25 23 28 28 28 27 37 43 37 70 53 53 66 57 90 83 76 58 61 68 87 81 71 66 60 60 59 72 62 68 65 68 66 69 66 74 79 65 73 89
26 25 25 40 117 140 164 168 195 189 242 262 308 383 313 460 455 488 431 537 518 436 499 459 531 509 438 481 488 505 547 593 504 582 524 461 431 514 487 479 470 455 475 513 270 143 103 76 94 117 133 121 65 139 191 199 312 225 298 294 288 263 246 236 239 235 226 219 225 214 220 183 235 213 203 204 47 48 91 31 30 24 18 22 17 19 22 21 11 9 7 7 7 16 15 17 15 12 11 11 18 15 19 22 14 16 21 20 23 24 22 30 24 33 26 29 30 30 28 36 36 37 52 57 86 68 65 55 51 48 67 86 66 58 55 56 50 56 60 56 56 64 63 68 65 63 66 77 82 82
55 68 158 213 216 134 192 292 144 295 234 352 383 470 464 565 503 585 480 585 590 490 556 497 523 471 486 521 551 564 630 626 596 632 626 603 543 552 536 531 529 510 518 510 431 211 168 162 146 146 147 128 93 67 195 342 342 292 305 271 257 250 263 254 251 247 228 248 237 242 252 172 234 199 211 190 55 36 44 47 32 31 22 26 19 24 18 23 13 15 10 11 14 17 15 20 15 15 13 13 18 13 16 15 16 18 19 20 23 25 23 24 26 29 23 31 29 30 26 45 33 42 59 63 72 51 56 50 51 50 75 54 55 54 50 47 51 52 54 55 55 61 60 61 63 63 79 86 88 85
162 208 199 168 263 211 327 399 225 348 345 301 464 462 602 402 670 664 598 645 634 533 604 526 564 508 538 621 674 662 690 720 758 715 732 687 694 670 619 576 571 574 558 558 541 528 448 314 363 388 377 372 218 128 118 234 311 337 283 297 261 254 275 237 243 242 248 262 280 304 299 280 275 201 177 82 48 104 78 46 53 33 31 25 30 25 23 20 18 14 14 10 10 18 15 18 22 15 20 15 18 16 20 18 20 19 22 22 28 27 24 27 24 30 31 34 30 29 31 33 46 37 57 42 44 51 44 39 41 41 41 44 46 44 45 51 54 60 57 56 60 59 59 61 66 83 93 86 123 146
268 478 534 456 355 582 540 495 536 314 671 500 699 761 609 501 825 825 769 781 775 645 679 770 728 681 695 646 682 710 754 752 751 700 752 660 674 717 674 611 601 570 559 517 537 537 514 464 432 341 320 314 279 283 223 291 308 287 283 300 280 274 269 261 280 274 272 317 317 296 331 263 307 188 172 77 69 67 137 127 98 71 42 47 31 30 33 20 20 25 25 12 14 13 20 27 23 16 14 12 13 16 19 28 21 21 23 22 31 25 23 25 23 29 32 31 31 30 31 35 35 34 52 38 41 45 40 39 40 46 40 42 41 46 46 69 68 66 67 69 62 60 61 65 76 70 131 109 143 203
412 292 455 564 470 480 666 566 524 484 738 689 769 733 607 579 730 939 961 929 871 769 684 870 838 782 797 713 782 760 799 799 728 747 763 654 694 739 741 646 670 556 540 534 537 511 498 475 391 317 317 285 239 276 167 198 289 246 271 291 311 289 303 336 323 356 335 389 423 381 326 335 355 239 151 94 161 230 174 123 138 88 67 53 35 40 50 40 24 32 65 44 46 31 35 25 26 21 19 22 36 42 21 27 27 24 26 25 22 29 24 32 28 31 28 32 28 35 37 33 36 36 36 33 37 36 37 42 43 42 46 41 52 50 62 58 61 71 67 62 67 70 77 84 94 100 110 115 122 138
619 538 574 630 510 639 846 813 710 623 480 672 996 1182 851 1070 786 891 1321 849 1175 987 938 1091 1093 987 1044 972 941 932 877 872 804 825 733 762 847 825 796 818 718 700 662 558 542 492 445 444 455 380 325 291 230 178 217 222 257 284 308 342 302 328 360 382 396 477 399 450 489 403 378 310 326 333 151 131 195 257 134 114 193 98 73 54 37 36 58 41 36 39 82 41 35 43 22 58 46 61 41 40 79 120 45 32 31 34 26 28 27 26 26 27 32 32 35 30 31 40 34 36 33 35 35 37 41 39 40 37 47 45 48 50 51 52 53 57 55 56 62 63 71 77 78 85 91 93 109 99 125 126
676 591 621 674 711 705 887 1046 801 853 408 679 971 947 971 1283 946 840 1042 985 1360 1045 1073 1185 1228 1258 1182 1077 1124 1016 1022 964 1055 917 782 845 850 911 893 783 786 756 690 578 519 512 501 538 567 532 322 204 267 286 268 329 373 300 377 376 363 365 384 434 422 450 453 497 546 486 413 308 310 327 179 197 266 281 153 139 167 152 131 73 55 43 66 40 47 48 52 52 40 29 28 69 45 58 94 68 48 51 32 33 34 34 28 28 30 26 31 31 37 32 34 34 37 40 36 39 40 38 36 38 43 44 43 48 45 46 52 52 49 45 55 54 56 57 60 64 67 86 87 100 103 104 109 116 110 84
499 573 617 678 836 888 802 873 1042 805 461 807 506 814 999 1220 1399 983 1246 1097 1506 1321 1423 1386 1385 1728 1418 1174 1349 1292 1171 1165 1104 1076 984 1051 963 1045 1004 901 866 850 752 682 653 631 597 426 353 364 259 246 275 247 178 205 353 444 423 479 470 400 425 550 594 609 721 732 762 605 427 351 348 342 330 342 313 290 185 156 185 190 140 64 125 116 152 112 117 92 80 101 54 30 41 39 50 53 68 69 44 45 123 52 56 59 46 35 31 29 36 34 39 40 36 38 36 39 41 43 46 42 40 39 46 50 49 55 54 55 52 56 55 52 59 55 56 64 68 75 68 100 111 107 112 125 107 100 113 99
434 414 533 572 787 986 868 978 1120 1003 685 701 751 612 785 964 1105 1160 1308 1238 1342 1493 1382 1578 1533 1691 1477 1455 1400 1246 1339 1283 1208 1034 1145 1070 1107 1044 986 939 886 840 847 735 736 603 528 456 387 299 298 310 516 310 214 267 239 334 393 508 504 400 424 573 634 770 878 921 878 596 492 360 371 381 353 376 358 313 234 182 178 170 173 75 117 151 133 143 115 91 83 63 53 51 83 78 72 46 86 71 59 58 90 90 66 55 54 38 34 29 30 40 41 67 66 44 45 48 45 45 43 45 41 41 46 47 52 54 53 56 60 65 58 56 55 63 61 68 66 76 79 87 88 108 109 114 110 106 116 106
910 638 558 562 667 758 1047 1079 1134 933 763 910 981 1047 1109 967 1141 1654 1546 1538 1567 1863 1631 1916 1857 1809 1634 2010 1468 1435 1676 1550 1632 1525 1342 1277 1166 1137 1064 1051 1081 1002 833 708 693 612 517 350 402 417 564 561 755 676 242 225 370 463 517 586 482 519 541 770 1035 1076 1128 1298 1470 826 604 418 429 437 455 440 358 323 285 209 236 230 159 104 180 186 145 113 100 100 53 40 72 107 127 70 82 131 174 152 90 73 60 61 49 50 53 45 38 40 36 46 52 65 69 85 58 56 68 49 50 42 61 59 70 67 59 64 59 62 67 53 61 61 65 71 74 72 84 69 76 82 85 108 110 89 89 91 87 83
962 858 770 688 626 688 814 952 1305 1339 1046 1294 1288 1387 1473 1016 1222 1599 1767 1672 1686 1856 1894 1980 1905 1890 1894 2089 1856 1534 1796 1917 1673 1805 1382 1366 1249 1151 1111 1096 1120 929 813 707 694 662 694 361 520 602 555 641 569 523 426 390 275 296 588 622 567 509 566 714 994 1242 1402 1483 1594 929 663 471 467 466 478 456 381 353 274 292 231 166 148 179 165 134 137 70 62 52 45 67 44 37 46 65 63 82 125 136 67 64 48 51 37 37 40 36 56 46 54 58 63 59 58 82 87 77 94 76 74 51 135 142 165 125 85 64 61 72 76 66 101 98 116 95 94 81 78 81 83 84 91 88 87 78 72 74 67 68
806 936 1232 1082 836 879 1010 1055 1068 1104 1206 1167 1571 1712 1773 1667 1661 1507 1517 1605 1590 1637 1697 1975 2003 2016 1893 1876 1887 2074 1958 2139 2497 2358 1740 1509 1335 1253 1241 1135 1017 768 742 758 719 778 792 829 742 650 591 592 647 638 549 569 436 480 472 456 780 709 655 830 945 1476 1865 1521 1344 923 687 568 519 487 473 432 349 342 289 212 212 198 141 129 101 88 102 97 89 81 74 49 79 51 52 89 102 121 122 98 68 65 60 54 50 51 46 34 35 64 62 79 80 85 63 139 153 141 137 90 80 59 75 82 105 104 68 60 68 74 80 77 96 102 125 103 127 107 89 94 94 95 91 85 87 74 72 71 69 61
625 765 981 1219 964 1055 1029 1093 1044 1046 1126 1186 1462 1719 1813 1928 1892 1595 1416 1459 1450 1495 1576 1753 1736 1736 1777 1758 1896 1997 2106 2110 2376 2522 1922 1597 1415 1282 1249 984 839 829 802 782 816 931 906 911 754 694 644 633 693 712 640 495 439 488 577 617 834 809 730 814 929 1375 1594 1474 1153 903 770 572 513 485 446 430 367 349 281 290 212 194 186 171 151 105 92 71 71 83 96 52 81 74 90 82 91 125 113 121 95 70 114 69 57 61 51 54 38 39 52 70 65 91 67 72 92 130 130 114 65 68 96 113 117 103 105 69 75 93 96 86 85 123 136 141 153 138 124 106 96 100 95 95 88 79 76 75 67 65
628 611 862 1118 1238 1276 1342 1142 1040 1044 1057 1125 1344 1543 1556 1922 1893 1551 1389 1383 1338 1463 1455 1572 1572 1577 1611 1681 1894 1972 2108 2070 1958 2082 1908 1648 1417 1216 1143 1063 952 876 864 807 780 758 760 763 825 824 765 734 690 573 679 654 819 811 935 825 942 909 849 888 942 1052 1119 1104 1063 810 727 641 553 528 548 521 436 305 256 277 255 209 148 185 127 148 186 96 105 82 58 71 88 145 139 143 122 150 112 108 78 97 81 88 62 82 67 53 39 79 58 63 76 81 90 88 79 122 113 92 81 79 78 103 128 117 104 96 89 134 118 118 89 98 95 134 150 120 270 183 165 145 140 129 98 127 101 90 106 96
900 894 965 942 888 896 1207 1318 1052 1232 1322 1293 1309 1315 1263 1230 1386 1378 1422 1285 1348 1386 1536 1473 1534 1593 1595 1635 1802 1878 2092 2142 1992 1835 1716 1592 1432 1318 1369 1076 973 916 883 818 790 738 718 724 724 707 777 794 715 685 700 741 816 787 937 1023 1072 1138 999 925 927 1006 1008 980 923 769 718 656 676 549 496 445 350 380 290 268 341 315 193 245 201 175 138 112 117 84 95 75 99 98 115 123 120 132 120 97 121 133 86 90 69 80 89 66 59 76 82 79 84 62 75 96 77 97 113 83 82 83 79 116 146 132 110 123 113 95 113 136 114 132 137 107 169 157 154 172 151 167 146 133 132 147 137 112 99 114
996 893 959 771 897 889 974 1068 1011 1086 1313 1326 1340 1270 1171 1124 1121 1211 1344 1270 1329 1305 1435 1370 1493 1476 1626 1616 1799 1938 2161 2148 1987 1760 1542 1632 1597 1689 1394 1137 1041 947 915 832 801 749 737 713 690 687 647 652 662 668 690 691 671 692 795 864 1080 1078 1000 1072 984 955 888 832 774 678 672 575 558 538 558 554 442 396 364 306 410 381 305 250 196 193 167 128 97 84 89 90 151 141 168 207 200 176 153 152 134 146 136 117 122 139 86 56 43 70 60 94 67 79 84 95 111 99 107 97 107 104 84 116 141 103 134 113 143 140 157 159 134 160 172 159 191 201 204 191 181 177 178 169 137 164 143 158 130 122
1023 992 939 833 757 678 742 848 927 952 1023 1128 1187 1132 1070 1151 1186 1205 1217 1093 1180 1105 1181 1357 1395 1436 1422 1444 1915 2211 1688 1931 1832 1575 1421 1614 1914 1967 1562 1248 1182 1040 988 890 842 776 771 729 705 703 675 666 657 646 656 672 709 697 731 769 901 1009 1037 1072 1015 965 978 873 824 721 677 557 560 525 516 513 534 427 373 411 419 371 303 238 287 185 139 117 107 120 111 112 135 167 182 202 192 177 173 155 166 171 126 114 141 146 84 109 44 63 67 103 69 77 106 93 91 119 130 103 96 106 99 134 125 109 118 115 141 151 160 143 109 141 165 141 153 175 174 170 167 181 159 132 126 160 148 134 131 132
885 1180 986 934 1028 643 983 1040 875 786 859 908 937 1098 1024 1073 1167 1160 1152 1018 1054 1048 1141 1297 1382 1323 1318 1396 1665 1695 1454 1571 1529 1432 1376 1545 1705 2080 1705 1357 1271 1103 1036 910 870 795 768 715 698 748 688 645 637 630 636 649 642 693 679 727 811 962 1039 1038 1031 954 947 887 851 728 592 520 493 497 517 531 525 500 504 499 386 365 266 274 260 264 178 190 184 259 272 266 253 193 211 192 178 152 173 155 103 106 85 84 85 85 85 86 98 101 119 110 80 102 90 113 123 122 143 120 136 134 155 158 157 123 144 148 142 152 150 127 143 133 151 165 148 152 156 127 145 144 152 147 148 154 139 128 142 131
722 817 1122 787 830 551 931 1007 780 915 645 850 867 1009 891 1004 1029 993 1143 911 883 1078 1153 1181 1209 1208 1239 1204 1263 1303 1130 1191 1235 1194 1399 1515 1819 1884 1843 1603 1485 1226 1125 963 900 814 776 732 706 689 653 644 617 572 591 592 651 677 643 748 806 841 900 953 945 786 759 706 585 468 469 470 470 468 463 464 544 640 445 402 399 392 454 419 277 218 211 220 216 291 296 273 216 179 163 179 179 134 162 154 114 118 85 85 104 85 85 137 128 131 96 93 85 115 106 124 128 131 135 148 161 127 135 130 121 151 139 119 143 146 121 147 137 145 144 134 141 147 153 140 128 124 132 134 145 152 155 154 129 131
382 508 844 793 678 511 773 823 607 920 585 674 669 927 816 1062 1077 965 1126 859 872 1224 1239 1123 1018 1115 1166 1142 1157 1189 1039 1110 1116 1198 1425 1581 1735 2117 2133 1843 1616 1301 1176 990 930 823 797 745 712 687 657 636 609 597 579 582 586 601 635 686 689 836 883 944 902 760 699 644 542 467 469 465 466 463 463 463 495 612 563 473 438 441 428 411 450 290 242 260 259 299 276 203 211 236 179 131 127 132 125 126 119 93 99 104 121 85 85 88 117 112 115 97 89 108 102 127 135 121 132 136 127 133 136 134 143 136 157 141 119 137 125 135 130 120 138 147 133 156 161 159 123 122 107 110 122 136 135 129 122 156
331 402 348 284 469 484 784 777 583 550 456 581 654 790 868 934 962 883 915 797 697 888 982 994 950 1132 1121 1093 1002 949 941 981 1116 1211 1476 1641 1874 2690 3122 2154 1777 1359 1229 1019 957 896 843 795 765 719 668 654 593 609 524 547 608 644 672 749 747 777 793 823 791 779 762 670 576 579 526 485 467 463 463 463 469 494 575 690 477 474 488 475 460 432 363 342 291 251 244 218 178 157 148 138 139 171 95 101 88 87 102 108 90 85 85 96 127 137 109 122 113 137 121 114 117 101 103 129 112 130 109 119 102 124 86 133 123 106 121 119 116 132 137 114 114 121 128 133 129 138 137 125 130 102 132 136 120 126
272 454 297 354 606 673 728 702 434 417 489 537 642 808 729 734 631 643 801 699 638 945 882 874 958 1151 1034 1015 923 960 894 935 1083 1164 1464 1610 1867 2559 2801 2094 1785 1394 1254 1055 999 992 944 861 827 771 707 659 585 582 538 548 600 640 633 663 744 767 751 715 715 722 721 705 662 706 789 645 614 473 464 467 472 500 546 607 520 522 558 516 436 443 431 356 321 224 233 189 189 163 163 129 184 149 147 100 100 87 130 111 92 106 85 91 101 115 112 126 129 128 119 102 103 101 111 122 116 119 105 118 109 105 89 99 128 118 118 101 132 122 150 127 121 109 117 114 126 125 127 113 123 117 112 108 121 117
203 259 269 344 442 559 556 576 481 376 621 635 574 951 743 536 534 522 527 700 790 684 695 1160 1215 1006 932 932 853 876 851 905 1043 1130 1298 1466 1682 1877 1904 1727 1646 1395 1249 1204 1263 1187 1101 965 916 910 765 690 599 564 530 504 561 586 626 661 692 684 685 709 700 648 693 768 919 1283 844 1055 823 634 467 472 473 494 540 562 601 590 622 612 510 526 561 393 357 280 246 193 185 197 171 192 205 181 117 110 127 126 167 176 106 113 92 85 123 134 133 130 138 120 116 116 87 92 103 108 124 97 103 87 93 82 97 79 109 113 111 102 111 120 127 113 107 77 78 125 106 102 96 129 122 98 130 126 118 106
224 260 210 251 338 423 510 524 511 329 502 475 534 598 763 431 604 615 734 850 718 678 804 1118 1064 1005 859 849 840 781 841 884 988 1065 1221 1351 1430 1605 1667 1561 1515 1371 1314 1351 1330 1311 1217 1075 1009 923 772 712 606 566 530 498 517 573 590 607 603 739 740 644 637 673 693 857 994 1308 927 1179 935 711 506 480 499 527 562 584 609 611 633 608 597 590 529 416 373 304 255 200 245 244 227 239 246 236 194 124 176 168 165 189 133 118 120 85 115 124 124 134 116 121 126 115 96 94 89 89 119 98 83 120 98 75 77 88 102 109 94 77 100 112 109 98 95 89 94 115 118 90 118 142 134 102 122 146 140 88
269 291 317 322 330 358 474 500 431 464 441 420 444 531 529 489 574 715 982 732 672 690 705 943 949 857 775 798 695 756 813 828 872 934 1067 1144 1253 1313 1334 1342 1341 1448 1549 1667 1768 1615 1449 1241 1139 981 811 744 624 582 483 466 479 481 515 543 563 590 602 624 631 612 668 944 1171 1342 1316 1121 1053 1048 715 723 681 670 617 642 646 650 653 673 628 586 544 478 457 315 256 278 296 282 221 231 215 189 217 213 157 150 156 178 120 142 85 123 112 113 109 106 101 123 110 110 109 85 86 97 84 115 78 74 84 76 85 76 71 70 87 73 82 76 78 77 70 78 80 89 91 92 86 116 113 105 105 83 108 100
239 255 280 283 274 285 306 299 270 284 276 292 317 332 472 504 496 585 643 611 597 567 684 845 888 880 758 742 662 761 800 785 843 892 995 1091 1286 1203 1223 1262 1302 1526 1690 1965 2076 1830 1667 1314 1158 1053 846 782 642 595 506 447 470 486 557 573 552 591 607 587 602 639 649 801 1061 1257 1344 1506 1260 959 957 875 783 749 690 702 676 686 649 675 592 554 543 464 446 345 278 281 284 243 230 251 245 240 195 210 153 148 149 144 156 145 122 122 116 113 115 125 129 105 92 117 102 80 80 86 107 85 76 77 85 76 90 74 75 72 73 68 73 71 63 67 62 81 64 89 76 99 91 96 89 84 61 79 91 106
210 228 255 271 233 262 219 225 256 248 276 276 305 330 390 481 523 515 485 513 510 670 805 781 833 826 759 676 662 667 744 728 808 848 928 1008 1141 1116 1106 1237 1398 1729 1975 2661 2984 2414 2135 1437 1314 1076 917 797 646 584 507 455 448 472 594 615 580 586 606 643 635 702 696 831 1003 1131 1207 1289 1215 1128 1089 1052 906 854 793 771 729 719 726 663 594 565 552 475 427 385 338 334 296 244 238 273 262 239 242 201 161 154 145 125 128 119 147 132 118 128 127 113 108 90 94 82 81 78 81 86 78 76 73 75 75 76 79 72 73 75 73 74 71 70 72 75 69 77 82 68 73 70 69 62 64 87 58 80 59 65
201 186 204 181 180 212 226 226 225 229 253 272 253 287 282 310 324 353 368 436 547 654 709 695 711 710 660 705 698 625 662 752 753 773 835 877 916 1016 1079 1192 1330 1731 2047 2848 3244 2718 2198 1483 1241 1115 893 810 634 578 498 471 441 457 518 534 543 582 597 647 722 709 742 944 1057 1208 1227 1301 1259 1207 1157 1098 1004 956 818 791 728 721 729 664 583 561 546 488 442 359 401 377 338 248 257 355 325 270 255 216 169 162 132 127 149 150 152 141 164 149 134 105 95 92 80 80 79 76 73 74 72 74 73 73 76 73 74 75 75 76 82 81 72 76 72 71 81 75 69 68 76 81 62 84 74 80 85 71 56 63
180 170 148 159 215 228 226 225 237 253 235 261 250 283 301 312 321 309 345 384 411 586 704 643 671 638 667 650 636 656 707 720 700 754 798 842 874 981 1044 1240 1343 1698 1886 2661 2993 2439 2071 1523 1275 1126 897 804 705 581 493 455 429 443 474 532 497 559 605 691 668 739 751 910 1239 1279 1293 1334 1393 1388 1322 1282 1078 1008 882 834 772 755 794 747 604 562 527 490 411 412 422 386 323 320 308 252 269 243 245 235 172 171 178 153 150 146 153 169 160 135 132 95 84 81 84 77 80 77 74 75 75 81 76 76 83 78 80 80 80 83 84 80 91 86 90 90 93 87 84 75 76 76 78 76 75 74 69 67 66 60
132 154 238 201 135 185 215 207 273 249 267 299 284 321 312 391 402 542 460 416 411 409 433 484 545 554 605 563 574 608 581 675 682 699 759 798 832 951 1007 1147 1228 1501 1633 1948 2091 1921 1611 1291 1192 1076 964 902 692 580 477 454 418 434 457 461 455 502 517 585 691 763 825 967 1089 1282 1346 1431 1480 1585 1441 1414 1181 1088 891 854 770 765 755 754 660 617 576 503 487 447 421 397 349 318 349 205 239 190 224 204 170 164 175 163 151 145 151 157 144 131 111 92 83 80 79 75 82 76 75 78 76 75 76 77 80 86 85 85 88 88 91 84 94 98 99 94 99 97 90 83 84 80 81 83 80 77 73 71 63 60
199 223 166 169 177 194 216 222 247 260 257 257 275 378 409 445 535 656 639 460 491 424 401 408 482 481 527 505 568 574 570 597 650 678 869 851 835 928 980 1123 1207 1380 1525 1721 1750 1650 1515 1234 1062 1048 1049 1130 662 574 429 452 385 408 437 446 445 483 514 621 655 783 864 1030 1158 1295 1343 1494 1567 1747 1662 1634 1374 1135 909 838 760 725 716 720 613 586 560 521 505 476 469 394 340 245 263 183 185 161 159 177 171 168 187 163 154 152 145 142 128 131 130 90 85 83 84 82 76 85 100 86 83 76 85 83 88 84 89 90 90 94 93 93 102 105 108 116 113 103 94 95 89 91 88 90 87 75 77 72 69 62
147 128 162 160 172 183 212 204 240 266 295 331 330 660 722 784 860 937 918 806 689 649 512 582 569 527 501 502 563 556 601 640 626 644 804 779 811 858 876 1010 1008 1228 1328 1354 1393 1386 1252 1037 1035 879 768 813 604 554 443 395 379 390 418 428 438 477 510 586 630 780 869 1031 1095 1231 1312 1617 1764 2040 2393 2150 1776 1463 992 909 838 789 714 681 653 630 578 544 488 476 458 334 252 212 197 176 169 165 167 149 156 153 169 160 163 146 140 143 116 114 116 89 86 79 79 76 81 81 85 81 84 89 94 96 96 91 96 99 102 102 107 119 129 127 129 135 131 124 122 117 113 104 109 103 95 84 77 77 68 68
136 144 146 161 172 181 208 233 371 356 472 392 401 560 584 778 579 853 978 883 833 620 630 686 582 648 606 601 570 573 627 643 628 748 810 760 773 810 801 941 1022 1139 1195 1254 1272 1201 1134 987 948 937 722 669 534 452 422 394 390 389 420 425 448 502 534 608 665 781 846 1021 1101 1230 1301 1645 1859 2113 2709 2587 2053 1633 1095 986 872 821 728 690 649 592 565 504 491 445 376 282 254 208 195 175 163 168 162 165 160 145 158 157 136 134 145 169 122 155 122 86 83 80 84 78 86 84 86 84 82 86 96 98 97 96 104 105 108 111 116 117 136 143 152 148 150 138 136 134 127 119 112 106 100 88 79 79 72 72
125 130 147 162 180 197 186 232 407 366 309 359 320 556 526 427 432 680 714 529 482 533 547 504 510 492 479 491 473 518 712 737 765 808 805 753 753 739 756 843 891 986 941 1223 1054 959 912 849 808 755 653 604 509 478 411 387 382 377 409 426 465 528 547 637 687 791 857 1010 1096 1217 1286 1628 1865 2315 2948 2818 1816 1542 1203 1082 920 848 737 698 665 606 590 484 416 354 367 284 285 261 211 181 177 184 171 152 141 127 129 126 122 128 109 108 110 113 115 89 82 75 80 83 92 93 96 90 99 105 110 111 118 113 115 122 117 127 135 143 175 182 189 191 204 175 177 167 161 141 126 121 108 91 86 86 78 75
113 135 133 165 184 177 177 216 287 291 225 264 401 425 353 380 393 576 554 415 398 464 419 466 491 490 471 458 480 524 669 763 835 816 800 693 709 701 716 787 818 877 867 1227 1018 937 838 836 743 708 611 573 506 465 391 372 379 364 406 422 450 519 552 627 673 760 855 1006 1097 1214 1287 1511 1762 2111 2572 2753 2088 1734 1221 1116 929 835 734 692 664 588 561 482 439 375 391 304 310 244 200 181 200 194 178 161 140 141 122 127 122 125 152 140 111 118 105 86 89 87 82 89 92 100 101 111 109 117 119 127 125 122 127 127 138 143 159 162 184 205 220 234 222 202 200 192 177 159 145 132 117 108 99 87 81 82
101 98 133 125 153 184 245 211 282 333 294 298 406 214 331 364 311 409 351 306 232 260 355 508 498 468 474 436 479 506 706 830 836 738 829 672 791 626 654 694 725 735 785 799 841 713 702 688 820 644 568 530 451 420 380 325 381 355 370 407 413 486 519 594 642 760 812 932 1020 1110 1221 1356 1449 1570 1960 1989 1837 1701 1305 1188 924 822 721 696 662 590 535 458 413 363 331 313 297 250 219 185 160 180 170 166 151 132 134 125 124 134 140 158 112 121 95 88 86 85 85 84 93 110 117 121 137 137 153 159 154 153 155 173 172 170 205 205 244 250 268 303 291 279 263 246 248 220 183 156 147 125 117 105 87 84
181 256 229 281 213 195 350 462 179 309 133 324 349 232 503 266 317 323 219 198 181 305 513 530 470 453 403 470 568 528 619 764 684 751 787 674 742 594 604 634 673 694 681 725 989 647 647 643 738 870 732 670 453 386 342 360 373 348 383 394 414 461 506 573 633 740 792 889 1005 1123 1112 1203 1243 1361 1601 1700 1745 1555 1339 1221 936 818 738 702 657 560 532 448 423 367 334 314 266 258 225 177 168 156 154 154 128 125 128 120 125 135 155 130 134 97 104 82 84 83 87 87 95 146 137 136 146 160 169 177 181 195 187 190 200 237 228 241 275 298 288 333 340 303 297 288 285 230 205 171 162 131 125 114 91 85
171 209 332 287 339 307 446 519 177 113 246 139 223 372 260 315 312 171 160 221 286 392 510 506 488 443 484 555 724 621 681 678 614 654 540 491 501 630 659 565 578 603 584 674 694 550 564 534 587 590 480 449 330 322 334 349 352 326 329 370 402 459 481 539 581 657 716 778 885 950 930 1096 1189 1308 1503 1556 1595 1464 1326 1168 960 898 784 729 665 572 527 452 418 373 350 314 297 187 170 158 161 151 140 144 124 123 116 115 114 116 157 160 124 115 93 87 87 90 88 91 123 178 165 148 160 189 200 206 238 239 244 239 278 294 289 358 379 326 406 426 433 397 386 383 376 288 274 207 188 155 148 128 109 110
419 237 295 407 434 353 230 322 191 103 152 102 128 242 124 142 89 157 181 366 586 417 358 377 417 368 585 891 1033 987 956 798 578 710 561 405 399 647 597 486 554 579 562 571 620 506 522 503 514 488 413 416 314 307 316 340 353 333 330 365 386 417 460 540 585 670 651 755 800 907 986 1160 1289 1356 1656 1628 1692 1556 1290 1174 1010 940 796 729 660 567 524 457 443 358 341 256 240 217 198 166 156 162 141 141 124 115 117 110 111 111 149 150 133 114 105 91 88 95 94 92 128 170 158 159 162 197 211 231 240 273 277 279 314 268 341 433 423 404 405 479 480 452 432 423 393 320 294 234 208 170 156 139 124 120
313 353 198 175 268 299 146 173 187 133 152 134 82 74 82 178 153 258 460 558 447 375 380 297 339 337 596 732 957 1009 862 890 571 606 549 441 382 389 615 534 535 539 549 541 480 484 472 452 443 391 369 339 297 294 308 332 337 343 334 349 361 416 426 476 501 570 611 690 740 883 974 1153 1247 1428 2128 2352 2011 1643 1360 1217 1004 930 773 714 645 557 519 446 404 333 309 260 237 201 190 165 161 146 138 130 128 124 114 107 106 106 125 130 125 106 90 90 92 99 101 112 123 150 161 205 194 221 237 257 302 318 367 295 403 388 442 591 552 557 539 613 625 566 553 501 450 347 335 283 243 190 170 163 155 132
115 200 176 262 339 286 114 78 97 107 124 139 212 424 331 493 418 360 346 253 232 261 236 412 278 356 631 738 911 895 763 688 345 351 360 329 302 434 551 504 487 574 466 495 478 423 415 408 308 336 332 292 287 259 293 282 285 308 310 369 355 390 413 468 499 559 602 687 754 879 952 1182 1342 1483 2280 2877 2357 1789 1259 1210 998 907 762 703 635 541 503 439 400 341 314 261 244 203 187 161 151 147 141 132 127 120 113 109 102 102 110 117 122 107 104 91 99 107 111 112 126 163 189 220 229 252 254 275 320 336 367 348 465 425 500 650 623 584 580 671 701 655 627 534 477 372 374 299 253 209 192 177 149 132
63 66 163 130 274 267 214 166 171 159 70 46 85 154 242 424 328 417 342 220 188 249 223 288 362 359 593 867 843 883 610 660 360 249 315 293 275 572 543 484 431 539 528 435 497 440 381 372 305 295 305 283 290 272 292 273 289 312 303 324 341 387 417 462 492 550 582 677 732 861 940 1139 1269 1425 2133 2328 2016 1809 1282 1128 965 870 737 673 627 534 493 418 394 340 309 260 241 202 185 152 149 141 135 131 116 114 111 107 100 98 97 104 95 94 93 98 98 108 107 121 126 157 189 225 246 272 278 308 330 363 399 404 461 524 595 590 743 653 719 796 753 809 731 608 519 436 413 311 267 223 207 191 168 147
60 192 194 175 146 211 231 172 227 209 171 43 42 88 90 163 130 303 271 186 184 188 186 225 402 590 644 544 453 509 389 295 284 360 344 295 260 479 415 351 493 520 411 453 444 478 448 357 323 308 279 280 285 269 266 280 266 274 301 311 334 365 392 436 465 513 551 644 690 818 886 1051 1137 1223 1462 1506 1365 1284 1119 1045 876 803 708 660 609 519 482 409 372 319 297 244 228 191 174 152 144 143 125 123 121 113 105 106 99 96 94 100 99 86 95 106 110 109 121 127 133 163 178 228 267 290 320 337 402 432 455 512 578 654 638 728 867 866 958 1086 1147 1254 1211 760 650 522 450 365 315 274 267 239 203 187
176 83 106 136 144 208 329 326 293 234 286 124 112 216 247 116 134 300 297 210 184 234 308 411 540 651 461 498 359 537 381 316 190 275 264 382 291 406 348 401 443 459 384 373 413 400 379 424 304 294 293 295 286 263 267 272 259 268 291 308 321 356 378 420 444 510 543 635 680 796 858 998 1086 1176 1267 1267 1273 1194 1018 947 835 768 671 633 587 504 470 407 369 316 291 238 217 186 179 151 142 138 125 125 118 116 103 105 97 99 91 92 88 93 94 106 110 118 117 134 137 151 171 211 266 322 301 332 374 394 478 561 653 724 806 826 1014 977 986 1356 1485 1401 1356 872 795 643 506 471 385 317 287 259 226 196
31 28 86 45 43 54 229 455 209 102 49 43 60 131 54 132 234 444 478 219 184 204 380 515 467 512 416 390 548 420 460 348 217 405 534 404 211 508 261 416 383 389 339 367 297 400 449 597 308 291 291 285 271 255 259 258 248 254 271 286 296 335 351 396 431 492 526 594 627 702 762 858 924 947 1008 973 1024 948 866 830 725 677 591 560 531 466 442 377 353 297 271 230 204 176 165 152 143 137 132 120 112 109 101 99 95 92 93 91 92 100 99 107 111 120 127 144 155 166 179 203 219 319 368 400 411 437 529 561 700 864 1012 998 1042 1306 1439 1883 2036 1971 1774 1293 1023 794 678 516 451 351 313 293 241 211
32 97 224 258 75 148 286 249 244 187 33 146 215 64 41 114 211 431 449 260 184 380 435 468 384 376 263 271 374 338 475 467 291 394 422 294 228 293 296 479 274 315 259 221 316 313 357 437 372 335 405 303 336 285 266 250 247 244 261 272 289 314 337 386 411 479 508 564 596 653 697 816 836 865 894 886 920 867 797 761 684 631 556 516 498 442 420 364 338 288 261 218 198 174 165 149 142 135 126 123 114 113 104 97 92 93 92 93 97 96 103 116 120 122 131 145 158 177 186 215 211 305 365 396 433 436 537 593 740 742 876 957 1222 1371 1577 2048 2393 2323 2016 1464 1213 841 679 524 469 387 356 323 255 236
26 25 122 166 145 250 258 145 224 187 27 84 155 64 31 113 177 82 104 164 112 232 136 225 307 227 214 204 287 291 229 441 451 404 267 143 176 253 312 432 237 230 223 241 205 287 333 403 525 386 359 411 282 265 251 243 236 228 247 256 265 290 300 362 381 433 456 514 528 618 639 676 702 716 745 733 745 731 696 645 596 567 499 480 454 400 374 327 311 269 249 211 199 166 157 148 138 133 123 121 112 105 101 100 95 93 91 92 95 97 106 112 116 125 135 148 148 180 200 227 247 313 336 388 454 493 554 607 713 755 864 989 1393 1563 1853 2472 2939 2863 2488 1736 1395 940 720 556 515 415 377 336 291 267
14 20 12 13 49 97 224 63 122 144 25 109 161 150 29 77 40 160 271 156 84 207 219 71 174 113 192 96 238 269 301 354 329 215 228 77 313 294 173 422 309 224 188 223 219 244 304 427 834 510 507 440 324 343 259 250 230 220 234 241 247 276 279 326 363 406 431 488 525 580 571 594 623 646 668 666 672 663 630 607 545 527 469 441 423 378 355 312 295 254 241 207 189 162 155 140 138 129 119 117 111 105 100 98 95 94 90 90 96 98 103 111 115 130 122 147 145 181 202 234 254 295 332 361 411 443 589 669 705 774 905 1015 1511 1667 1968 2613 2956 2971 2480 1734 1407 985 774 568 492 408 386 362 310 272
11 13 18 17 14 55 39 116 159 47 26 140 214 213 40 44 145 346 240 60 164 170 98 78 222 126 68 192 166 84 142 200 181 181 119 82 52 112 126 259 285 143 161 131 243 333 312 335 731 846 650 681 572 565 699 732 395 341 200 214 217 238 260 303 323 373 391 424 436 475 486 511 541 549 547 558 547 551 529 510 473 454 413 390 371 337 318 277 262 231 222 192 175 154 142 129 124 123 115 114 105 105 94 96 91 93 91 92 102 97 104 109 120 122 134 158 161 191 216 238 250 297 328 362 416 418 622 623 726 824 935 1010 1442 1652 1883 2346 2559 2547 2229 1754 1347 923 762 569 523 487 449 383 320 291
11 8 12 10 12 16 40 37 102 40 24 27 23 53 24 60 144 320 164 51 110 79 95 135 38 73 165 168 121 132 151 174 145 144 95 45 48 58 74 171 225 119 147 130 222 274 311 311 414 699 900 782 906 891 734 631 510 421 248 227 216 223 249 287 310 345 369 395 403 434 450 467 495 502 501 500 504 500 482 471 438 415 375 362 340 309 296 265 242 219 209 180 170 147 140 132 122 119 113 112 102 104 93 93 93 92 91 100 98 102 101 115 113 135 160 157 181 189 217 254 284 319 346 357 420 457 522 626 714 796 942 1036 1398 1527 1694 2140 2230 2294 2068 1594 1290 926 765 588 569 486 445 408 334 310
17 10 10 19 13 22 16 18 69 39 29 23 18 20 20 146 89 190 104 63 82 30 18 29 25 27 89 106 64 44 118 96 98 51 65 32 41 40 42 71 154 118 132 177 228 301 275 253 401 521 772 558 620 500 601 526 349 278 279 241 188 208 224 253 270 302 323 340 346 371 387 399 413 425 419 420 408 413 392 396 367 347 326 305 289 273 248 232 217 199 186 164 159 137 131 118 115 113 107 110 102 96 97 93 94 93 95 101 102 99 111 112 123 140 166 158 181 216 237 260 285 341 359 416 460 509 590 608 701 775 965 1054 1197 1381 1489 1716 1897 1807 1698 1318 1154 833 732 626 554 463 432 415 346 315
8 9 8 12 14 12 16 18 48 28 29 21 17 19 23 63 39 48 25 52 41 29 16 13 14 14 11 18 14 18 24 25 23 46 35 40 41 36 46 146 196 104 184 213 266 215 275 306 350 502 544 390 454 318 374 349 375 400 200 199 168 192 208 238 252 284 292 313 321 346 359 359 380 383 380 383 365 370 356 351 328 314 289 281 267 251 238 215 203 183 184 165 155 137 132 119 118 118 108 106 100 96 98 95 96 93 99 96 106 106 102 113 117 124 148 169 187 221 228 285 288 357 396 418 491 525 575 597 724 792 911 1011 1353 1500 1677 1733 1826 1412 1571 1229 1086 854 805 592 551 494 449 402 338 310
10 14 9 10 12 17 14 16 23 24 19 23 18 21 18 42 28 17 16 18 22 49 13 15 18 15 13 12 16 20 18 20 20 42 23 32 37 43 37 91 120 84 172 196 262 415 274 256 396 498 540 531 275 419 298 387 400 306 182 155 133 183 192 222 234 260 271 287 301 318 327 331 353 355 352 349 337 333 318 325 308 297 264 252 237 224 216 192 191 180 176 153 150 134 126 116 118 118 114 100 99 95 100 99 97 98 99 104 105 112 107 119 130 143 148 183 183 225 242 275 311 362 385 405 490 523 616 662 765 869 1034 1065 1297 1304 1437 2010 2161 1688 1414 1155 958 835 801 623 599 461 441 390 333 303
4 12 13 12 17 11 13 13 21 24 25 17 20 20 20 103 14 23 25 22 52 40 10 8 15 8 10 14 15 15 16 18 77 29 33 26 35 48 52 55 76 79 256 284 234 717 545 379 571 660 675 651 594 426 156 431 134 129 218 167 153 153 172 197 205 226 238 245 256 270 277 284 292 302 298 294 279 270 261 267 252 250 228 218 210 193 185 176 169 165 156 148 134 127 119 108 114 106 102 98 96 94 95 96 96 99 96 99 101 103 114 121 123 142 157 186 184 230 242 275 314 353 399 407 482 538 670 716 849 874 939 997 1280 1408 1524 2038 2123 1456 1481 1087 968 771 791 666 602 479 428 406 331 292
6 9 9 8 8 17 12 13 17 25 18 16 15 12 19 43 15 24 21 28 63 46 18 9 8 11 10 10 12 15 15 12 22 28 32 25 39 43 46 67 75 114 188 412 374 492 507 528 590 788 542 471 562 438 201 230 118 115 110 94 116 144 155 191 197 212 222 227 234 249 262 263 269 277 270 264 260 249 240 237 237 230 212 204 194 178 177 165 160 153 152 144 132 125 117 107 106 102 99 101 95 95 99 95 102 103 102 103 102 104 108 123 134 156 155 163 182 234 243 292 319 358 397 420 468 536 639 694 795 882 1029 1065 1238 1343 1450 1795 1829 1436 1283 1005 879 870 789 688 617 481 441 383 325 282
14 12 7 8 9 8 14 17 22 22 15 11 16 10 11 17 15 15 21 18 10 14 13 12 9 8 12 15 11 14 18 22 22 23 22 36 35 60 64 68 71 70 169 194 287 226 411 466 699 775 746 619 466 332 188 165 114 103 124 133 137 148 152 165 174 184 189 196 193 215 220 222 225 228 224 223 212 211 195 196 195 194 184 178 171 163 159 152 145 140 135 130 121 117 113 108 112 105 98 99 94 101 94 102 100 98 106 100 106 104 109 114 120 147 160 178 191 232 250 275 303 350 390 407 451 501 578 636 727 762 877 981 1140 1332 1363 1510 1517 1629 1489 1081 999 878 809 697 607 509 433 433 327 291
9 8 5 8 8 12 18 14 14 12 14 11 11 13 15 11 14 20 18 10 10 16 9 10 7 7 12 9 14 18 18 20 17 20 21 33 30 49 45 58 66 65 83 136 233 303 298 373 696 802 615 510 494 292 133 113 73 111 119 125 127 136 141 162 167 173 177 180 186 199 206 207 210 217 206 203 195 187 182 180 180 176 168 167 163 158 156 142 136 134 130 129 125 110 110 104 107 104 100 103 99 96 90 96 100 98 109 101 107 105 110 114 125 146 160 181 194 224 238 288 296 333 382 401 474 518 566 599 738 768 882 944 1159 1087 1308 1351 1416 1370 1194 998 856 846 790 616 559 474 460 412 336 298
10 17 11 9 19 18 9 9 15 11 15 8 10 9 14 8 8 15 9 9 12 10 5 9 9 7 7 13 12 13 11 17 14 14 28 30 34 43 40 37 40 51 89 327 323 264 484 556 696 717 680 607 326 304 103 103 97 111 115 116 116 137 128 143 146 149 150 153 160 170 173 172 179 174 175 173 167 161 152 156 157 153 147 147 144 138 142 135 133 131 126 185 144 114 109 106 107 105 102 102 96 108 135 144 114 103 104 105 107 109 107 112 109 134 129 157 179 210 223 249 283 319 364 380 410 468 520 536 676 702 788 762 1024 1016 998 1192 1144 962 959 884 698 738 674 598 682 516 448 401 310 279
10 10 21 19 18 20 9 11 10 14 15 11 8 8 8 9 9 8 8 9 8 15 12 6 6 9 10 13 7 10 13 14 13 13 20 25 32 34 35 35 39 72 172 407 322 473 590 621 701 656 508 390 319 252 110 97 97 100 103 106 116 113 121 135 144 138 146 146 154 156 161 162 163 164 156 159 156 144 140 149 154 149 146 136 136 133 132 133 126 120 120 142 111 112 113 107 104 104 102 97 101 115 136 158 129 167 109 112 119 105 111 109 115 113 134 150 169 195 216 243 273 309 359 348 402 450 486 558 625 642 662 808 815 957 1003 979 1016 895 898 765 717 651 645 634 731 585 500 407 366 285
8 10 11 19 11 19 15 11 20 16 11 18 19 9 8 9 8 6 7 8 8 12 11 11 7 10 5 11 14 11 11 16 14 11 11 16 26 30 30 32 24 94 212 201 208 497 675 758 457 357 226 352 202 149 131 90 85 89 96 104 101 110 111 119 121 126 120 129 130 136 138 135 140 140 130 133 127 126 172 160 175 139 131 130 125 128 121 127 121 119 140 120 225 172 111 109 102 102 97 98 105 110 175 193 188 265 178 139 116 109 114 109 112 225 167 136 144 174 212 256 273 297 335 352 423 455 483 516 567 528 620 659 754 773 819 776 838 779 725 671 657 564 563 549 567 497 433 356 310 263
-9999 -9999 -9999 -9999 -9999 -9999 6 -9999 5 9 14 12 17 14 21 20 20 14 5 7 6 6 5 5 6 7 7 6 7 7 7 14 14 9 9 12 17 25 29 26 29 172 87 191 237 369 506 512 549 514 167 248 139 102 119 81 79 82 88 96 94 99 104 111 112 115 122 121 124 128 133 124 131 127 121 126 119 118 123 157 374 193 129 129 131 130 124 117 122 127 139 117 125 124 108 103 99 106 101 101 101 104 143 231 271 395 238 167 116 114 120 114 120 151 141 127 143 192 198 247 254 293 326 361 404 416 482 469 479 520 563 591 695 694 736 742 773 728 696 632 607 506 491 458 477 419 379 325 271 243
-9999 -9999 -9999 -9999 -9999 -9999 -9999 -9999 -9999 -9999 -9999 10 10 10 10 12 18 9 17 18 6 6 5 11 8 6 4 6 5 14 7 15 7 9 8 13 11 26 27 28 20 241 175 217 214 294 290 327 384 444 199 151 67 102 101 90 104 75 80 82 81 86 90 100 99 99 98 103 110 109 112 109 108 107 107 106 89 107 106 109 209 340 169 213 292 236 156 133 133 134 129 152 145 178 122 104 103 109 116 112 105 115 135 139 303 360 366 478 147 131 158 144 129 154 147 122 152 185 205 241 259 294 313 333 376 372 423 439 419 458 505 505 554 596 574 626 659 619 602 549 547 477 422 421 397 344 324 312 253 229
-9999 -9999 -9999 -9999 -9999 -9999 -9999 -9999 -9999 -9999 -9999 -9999 -9999 -9999 -9999 -9999 7 12 12 12 17 11 17 13 14 17 5 6 7 8 15 13 7 7 7 12 11 19 20 14 33 68 166 311 404 513 269 206 248 366 148 92 74 116 84 80 94 55 77 69 80 80 88 96 92 92 101 101 104 101 102 105 99 100 99 97 101 98 105 104 99 312 348 236 322 238 145 169 166 252 256 230 264 321 182 119 148 280 226 148 113 110 126 203 279 289 301 457 192 176 149 166 146 156 201 144 148 182 193 213 252 281 299 320 353 373 389 409 404 404 453 471 515 520 542 578 593 574 552 524 501 450 427 391 413 347 308 290 242 268
-9999 -9999 -9999 -9999 -9999 -9999 -9999 -9999 -9999 -9999 -9999 -9999 -9999 -9999 -9999 -9999 -9999 -9999 -9999 8 14 13 12 14 6 14 18 17 7 6 9 8 7 7 12 9 10 14 22 22 75 61 133 364 409 362 261 211 159 232 85 97 64 81 89 75 70 73 72 65 71 82 124 90 88 89 91 91 96 97 95 96 91 91 94 99 85 98 104 94 186 254 196 258 309 380 330 379 444 508 547 554 587 576 447 213 241 239 201 174 121 117 232 237 235 263 327 301 524 427 303 386 209 240 145 139 155 181 201 213 239 251 273 290 307 307 339 314 366 363 386 422 441 463 471 492 486 497 467 455 439 370 374 290 422 571 553 325 471 439
-9999 -9999 -9999 -9999 -9999 -9999 -9999 -9999 -9999 -9999 -9999 -9999 -9999 -9999 -9999 -9999 -9999 -9999 -9999 -9999 -9999 -9999 -9999 -9999 9 11 13 13 13 12 17 17 8 9 9 10 12 17 14 13 26 53 148 191 218 343 188 189 237 158 79 60 47 49 66 66 56 58 84 61 133 93 145 96 89 91 78 79 82 80 77 80 83 80 76 78 84 83 86 94 167 183 310 339 492 389 290 228 279 360 538 656 562 448 336 210 228 224 216 200 146 125 267 215 226 225 298 259 601 659 681 478 473 222 147 142 153 171 182 218 211 247 263 266 280 300 332 318 333 350 383 393 407 429 441 457 445 450 443 417 391 377 332 348 349 634 425 350 230 281
-9999 -9999 -9999 -9999 -9999 -9999 -9999 -9999 -9999 -9999 -9999 -9999 -9999 -9999 -9999 -9999 -9999 -9999 -9999 -9999 -9999 -9999 -9999 -9999 -9999 -9999 -9999 -9999 14 14 14 12 15 8 10 9 10 13 19 14 24 102 100 82 103 340 125 130 163 134 107 62 32 45 44 43 49 59 52 92 97 146 154 104 94 73 90 75 78 76 73 76 76 75 69 79 105 81 270 299 353 360 403 592 661 524 476 212 234 653 630 503 432 239 215 212 234 202 198 201 126 145 236 237 222 225 268 280 398 558 509 587 584 370 182 137 155 166 171 207 227 245 248 263 284 286 305 301 321 314 345 373 369 385 421 421 419 436 456 402 346 344 321 243 255 455 422 356 170 194
-9999 -9999 -9999 -9999 -9999 -9999 -9999 -9999 -9999 -9999 -9999 -9999 -9999 -9999 -9999 -9999 -9999 -9999 -9999 -9999 -9999 -9999 -9999 -9999 -9999 -9999 -9999 -9999 -9999 -9999 -9999 -9999 11 6 11 13 17 10 9 13 17 28 64 29 69 32 285 71 101 51 28 22 27 31 66 61 62 85 50 48 42 102 109 139 115 69 69 65 61 63 60 61 62 68 77 150 110 204 275 262 271 285 272 291 379 428 438 451 460 332 273 181 184 219 225 216 184 181 184 189 198 235 208 201 222 214 244 240 232 216 251 194 207 138 137 168 134 162 161 191 193 224 224 216 245 295 236 265 278 298 307 329 348 352 365 377 372 374 429 801 593 290 272 243 199 182 277 339 162 134
-9999 -9999 -9999 -9999 -9999 -9999 -9999 -9999 -9999 -9999 -9999 -9999 -9999 -9999 -9999 -9999 -9999 -9999 -9999 -9999 -9999 -9999 -9999 -9999 -9999 -9999 -9999 -9999 -9999 -9999 -9999 -9999 -9999 -9999 13 8 15 14 12 9 9 16 12 30 24 77 56 40 48 33 16 21 28 27 29 33 47 72 83 31 40 91 110 121 99 62 62 56 60 60 57 60 56 74 241 228 355 378 216 171 189 173 228 185 205 267 255 310 258 244 220 171 162 166 158 180 197 193 184 202 194 204 205 250 212 230 250 240 188 268 264 194 161 137 137 166 167 173 195 165 174 213 208 205 365 229 222 252 273 277 302 309 324 335 322 336 350 378 555 677 439 276 258 214 226 168 180 252 142 128
-9999 -9999 -9999 -9999 -9999 -9999 -9999 -9999 -9999 -9999 -9999 -9999 -9999 -9999 -9999 -9999 -9999 -9999 -9999 -9999 -9999 -9999 -9999 -9999 -9999 -9999 -9999 -9999 -9999 -9999 -9999 -9999 -9999 -9999 -9999 -9999 -9999 -9999 7 8 12 15 9 10 10 7 13 19 14 12 19 10 73 69 61 30 26 26 52 65 47 84 107 47 51 52 52 52 46 47 47 73 59 61 93 181 350 275 157 140 98 145 175 131 173 160 142 166 151 247 256 195 155 214 244 201 185 174 211 206 342 379 367 442 386 239 241 198 197 214 160 165 137 137 137 192 275 218 268 310 184 176 180 171 185 224 213 224 243 244 268 268 291 281 280 315 349 610 679 641 484 251 230 211 235 256 154 147 133 128
-9999 -9999 -9999 -9999 -9999 -9999 -9999 -9999 -9999 -9999 -9999 -9999 -9999 -9999 -9999 -9999 -9999 -9999 -9999 -9999 -9999 -9999 -9999 -9999 -9999 -9999 -9999 -9999 -9999 -9999 -9999 -9999 -9999 -9999 -9999 -9999 -9999 -9999 -9999 5 7 5 16 9 11 7 11 16 9 15 10 10 49 57 29 41 28 31 26 41 72 37 74 40 42 46 51 49 50 45 47 75 99 126 137 337 335 214 151 94 146 192 126 149 152 139 157 154 153 222 224 207 148 192 219 221 191 192 220 248 353 613 395 504 491 379 244 164 165 176 146 137 137 139 137 156 151 245 285 330 388 224 420 313 218 188 215 216 240 247 245 260 257 299 327 493 456 815 717 585 334 245 249 239 285 187 159 147 132 129
-9999 -9999 -9999 -9999 -9999 -9999 -9999 -9999 -9999 -9999 -9999 -9999 -9999 -9999 -9999 -9999 -9999 -9999 -9999 -9999 -9999 -9999 -9999 -9999 -9999 -9999 -9999 -9999 -9999 -9999 -9999 -9999 -9999 -9999 -9999 -9999 -9999 -9999 -9999 -9999 -9999 -9999 -9999 9 12 14 9 6 8 14 16 11 10 12 18 18 51 70 96 24 35 35 29 40 38 38 42 39 39 35 57 45 84 80 377 388 160 239 209 175 185 138 214 191 215 204 202 130 142 182 151 183 149 210 202 191 307 365 415 478 496 663 694 635 521 366 250 257 136 149 139 137 137 138 137 135 152 212 388 268 296 382 554 480 562 582 306 240 220 220 253 294 524 729 731 726 860 832 678 529 331 287 349 438 578 333 188 170 394 174
-9999 -9999 -9999 -9999 -9999 -9999 -9999 -9999 -9999 -9999 -9999 -9999 -9999 -9999 -9999 -9999 -9999 -9999 -9999 -9999 -9999 -9999 -9999 -9999 -9999 -9999 -9999 -9999 -9999 -9999 -9999 -9999 -9999 -9999 -9999 -9999 -9999 -9999 -9999 -9999 -9999 -9999 -9999 -9999 -9999 1 11 6 7 5 13 15 12 4 16 25 73 43 33 55 34 28 31 31 35 32 32 33 35 36 61 42 249 292 431 352 204 227 185 97 181 213 208 213 212 206 218 177 161 147 146 144 156 188 183 210 327 395 402 391 414 600 625 594 340 336 210 200 144 137 137 137 137 144 140 137 145 257 332 268 268 528 446 440 585 707 577 324 317 355 319 420 817 665 627 900 934 957 696 417 403 438 348 553 430 234 234 379 241 199
-9999 -9999 -9999 -9999 -9999 -9999 -9999 -9999 -9999 -9999 -9999 -9999 -9999 -9999 -9999 -9999 -9999 -9999 -9999 -9999 -9999 -9999 -9999 -9999 -9999 -9999 -9999 -9999 -9999 -9999 -9999 -9999 -9999 -9999 -9999 -9999 -9999 -9999 -9999 -9999 -9999 -9999 -9999 -9999 -9999 -9999 -9999 -9999 10 11 13 3 3 3 11 8 19 17 25 26 29 30 74 29 34 31 28 26 36 28 36 96 346 349 254 222 201 217 152 135 174 191 207 189 197 192 192 200 194 201 183 166 174 187 173 216 266 373 314 380 517 550 563 471 300 305 269 198 156 152 148 137 137 137 146 146 140 140 153 161 161 186 276 272 409 280 354 328 448 452 264 423 454 565 825 872 1029 1012 965 860 681 440 685 569 757 485 611 744 265 224
-9999 -9999 -9999 -9999 -9999 -9999 -9999 -9999 -9999 -9999 -9999 -9999 -9999 -9999 -9999 -9999 -9999 -9999 -9999 -9999 -9999 -9999 -9999 -9999 -9999 -9999 -9999 -9999 -9999 -9999 -9999 -9999 -9999 -9999 -9999 -9999 -9999 -9999 -9999 -9999 -9999 -9999 -9999 -9999 -9999 -9999 -9999 -9999 -9999 -9999 13 12 8 2 14 9 18 19 21 21 23 40 53 30 33 29 27 26 22 35 41 143 200 291 211 214 188 177 139 133 180 178 180 193 189 189 185 192 201 190 197 170 173 185 188 188 234 293 345 350 493 539 527 429 214 250 288 170 156 148 150 137 137 137 143 146 154 146 145 164 149 161 163 166 269 289 197 347 242 229 316 370 697 742 941 967 1038 1028 966 892 682 708 782 715 854 887 824 764 317 452
-9999 -9999 -9999 -9999 -9999 -9999 -9999 -9999 -9999 -9999 -9999 -9999 -9999 -9999 -9999 -9999 -9999 -9999 -9999 -9999 -9999 -9999 -9999 -9999 -9999 -9999 -9999 -9999 -9999 -9999 -9999 -9999 -9999 -9999 -9999 -9999 -9999 -9999 -9999 -9999 -9999 -9999 -9999 -9999 -9999 -9999 -9999 -9999 -9999 -9999 -9999 5 13 11 14 16 14 20 9 25 24 37 28 29 25 20 29 30 25 57 28 101 230 165 215 41 132 142 136 145 157 181 166 179 188 180 194 190 191 199 202 204 181 193 192 197 209 218 236 305 535 547 536 518 422 343 168 170 149 153 141 137 137 141 146 174 161 206 229 300 221 376 292 205 171 182 182 184 307 530 447 748 1026 1010 1041 1110 1120 914 780 934 932 1028 1068 806 863 831 764 802 527 309
-9999 -9999 -9999 -9999 -9999 -9999 -9999 -9999 -9999 -9999 -9999 -9999 -9999 -9999 -9999 -9999 -9999 -9999 -9999 -9999 -9999 -9999 -9999 -9999 -9999 -9999 -9999 -9999 -9999 -9999 -9999 -9999 -9999 -9999 -9999 -9999 -9999 -9999 -9999 -9999 -9999 -9999 -9999 -9999 -9999 -9999 -9999 -9999 -9999 -9999 -9999 -9999 -9999 8 5 3 4 8 7 12 20 20 21 20 17 14 15 19 125 107 57 98 294 247 87 40 128 121 122 147 163 169 166 171 178 176 178 182 180 186 183 194 194 193 191 208 208 208 258 299 460 480 547 539 561 404 286 214 155 149 150 139 137 137 138 154 170 172 196 318 334 460 320 210 280 198 205 209 319 510 604 832 955 1011 1008 1108 1117 988 777 875 872 1184 1126 832 812 804 780 861 650 542
-9999 -9999 -9999 -9999 -9999 -9999 -9999 -9999 -9999 -9999 -9999 -9999 -9999 -9999 -9999 -9999 -9999 -9999 -9999 -9999 -9999 -9999 -9999 -9999 -9999 -9999 -9999 -9999 -9999 -9999 -9999 -9999 -9999 -9999 -9999 -9999 -9999 -9999 -9999 -9999 -9999 -9999 -9999 -9999 -9999 -9999 -9999 -9999 -9999 -9999 -9999 -9999 -9999 -9999 8 3 4 6 10 10 18 11 19 15 19 15 14 44 236 201 178 263 367 342 256 173 121 117 123 143 155 154 163 164 164 195 182 170 176 183 197 201 192 188 193 198 210 222 261 351 439 483 551 568 566 447 217 186 164 153 147 137 137 148 147 156 154 173 261 298 254 399 318 298 233 293 337 312 403 488 845 830 998 1052 1034 1137 1015 912 714 994 897 1079 1015 790 796 753 807 847 897 788
-9999 -9999 -9999 -9999 -9999 -9999 -9999 -9999 -9999 -9999 -9999 -9999 -9999 -9999 -9999 -9999 -9999 -9999 -9999 -9999 -9999 -9999 -9999 -9999 -9999 -9999 -9999 -9999 -9999 -9999 -9999 -9999 -9999 -9999 -9999 -9999 -9999 -9999 -9999 -9999 -9999 -9999 -9999 -9999 -9999 -9999 -9999 -9999 -9999 -9999 -9999 -9999 -9999 -9999 -9999 -9999 -9999 9 8 11 16 6 5 8 11 67 76 385 400 373 366 368 354 370 335 337 136 132 128 150 141 149 162 161 167 180 168 175 165 186 195 188 179 179 182 199 211 221 304 361 428 433 541 584 561 554 231 201 163 161 151 148 141 151 152 166 186 276 315 294 317 287 304 351 484 572 772 644 783 870 990 914 921 777 843 838 711 632 554 896 850 883 960 779 728 757 726 774 817 690
-9999 -9999 -9999 -9999 -9999 -9999 -9999 -9999 -9999 -9999 -9999 -9999 -9999 -9999 -9999 -9999 -9999 -9999 -9999 -9999 -9999 -9999 -9999 -9999 -9999 -9999 -9999 -9999 -9999 -9999 -9999 -9999 -9999 -9999 -9999 -9999 -9999 -9999 -9999 -9999 -9999 -9999 -9999 -9999 -9999 -9999 -9999 -9999 -9999 -9999 -9999 -9999 -9999 -9999 -9999 -9999 -9999 -9999 -9999 7 10 10 11 12 9 322 344 373 373 341 348 316 343 319 337 320 182 131 146 146 151 162 163 175 170 158 148 175 161 163 184 165 182 189 182 199 221 233 400 399 418 404 513 570 550 539 269 187 158 159 153 141 152 150 152 168 185 436 503 295 331 373 331 333 458 577 729 850 816 878 980 932 875 757 843 659 691 526 590 793 624 996 991 920 699 706 682 655 809 676
-9999 -9999 -9999 -9999 -9999 -9999 -9999 -9999 -9999 -9999 -9999 -9999 -9999 -9999 -9999 -9999 -9999 -9999 -9999 -9999 -9999 -9999 -9999 -9999 -9999 -9999 -9999 -9999 -9999 -9999 -9999 -9999 -9999 -9999 -9999 -9999 -9999 -9999 -9999 -9999 -9999 -9999 -9999 -9999 -9999 -9999 -9999 -9999 -9999 -9999 -9999 -9999 -9999 -9999 -9999 -9999 -9999 -9999 -9999 -9999 -9999 -9999 -9999 7 8 105 141 324 309 304 318 299 304 306 282 302 333 303 281 186 175 187 182 170 165 147 147 155 157 156 162 182 164 161 172 215 272 311 381 379 380 425 403 401 398 356 214 185 154 149 155 150 161 160 147 146 177 180 210 478 394 338 354 310 358 518 803 891 923 827 914 749 770 549 667 599 795 472 560 486 718 700 773 891 842 754 564 547 688 695
-9999 -9999 -9999 -9999 -9999 -9999 -9999 -9999 -9999 -9999 -9999 -9999 -9999 -9999 -9999 -9999 -9999 -9999 -9999 -9999 -9999 -9999 -9999 -9999 -9999 -9999 -9999 -9999 -9999 -9999 -9999 -9999 -9999 -9999 -9999 -9999 -9999 -9999 -9999 -9999 -9999 -9999 -9999 -9999 -9999 -9999 -9999 -9999 -9999 -9999 -9999 -9999 -9999 -9999 -9999 -9999 -9999 -9999 -9999 -9999 -9999 -9999 -9999 -9999 -9999 9 32 256 256 288 280 308 300 307 283 279 306 288 311 280 258 253 192 185 139 125 160 149 129 150 159 178 166 171 176 298 290 325 325 396 397 430 333 310 304 266 186 167 162 149 151 161 171 230 173 157 149 177 300 226 209 184 203 410 431 492 764 854 712 715 742 754 715 417 409 606 711 508 510 523 612 763 771 902 813 785 705 549 626 704
-9999 -9999 -9999 -9999 -9999 -9999 -9999 -9999 -9999 -9999 -9999 -9999 -9999 -9999 -9999 -9999 -9999 -9999 -9999 -9999 -9999 -9999 -9999 -9999 -9999 -9999 -9999 -9999 -9999 -9999 -9999 -9999 -9999 -9999 -9999 -9999 -9999 -9999 -9999 -9999 -9999 -9999 -9999 -9999 -9999 -9999 -9999 -9999 -9999 -9999 -9999 -9999 -9999 -9999 -9999 -9999 -9999 -9999 -9999 -9999 -9999 -9999 -9999 -9999 -9999 -9999 -9999 165 202 217 236 261 278 299 291 288 293 300 301 288 310 320 277 243 200 176 160 175 208 198 191 205 247 247 248 272 282 331 364 393 417 407 333 311 259 220 178 175 161 156 167 202 214 326 307 239 220 196 159 170 161 314 339 459 497 630 638 714 675 540 645 677 558 387 522 540 560 351 507 523 547 573 691 614 468 750 612 418 608 617
-9999 -9999 -9999 -9999 -9999 -9999 -9999 -9999 -9999 -9999 -9999 -9999 -9999 -9999 -9999 -9999 -9999 -9999 -9999 -9999 -9999 -9999 -9999 -9999 -9999 -9999 -9999 -9999 -9999 -9999 -9999 -9999 -9999 -9999 -9999 -9999 -9999 -9999 -9999 -9999 -9999 -9999 -9999 -9999 -9999 -9999 -9999 -9999 -9999 -9999 -9999 -9999 -9999 -9999 -9999 -9999 -9999 -9999 -9999 -9999 -9999 -9999 -9999 -9999 -9999 -9999 -9999 126 132 190 181 235 245 266 257 256 281 272 284 277 314 312 294 279 266 202 190 228 222 247 221 238 248 275 286 290 271 279 324 355 419 411 358 307 245 237 181 177 159 167 169 215 277 348 301 249 264 326 166 164 233 291 461 414 482 526 559 631 614 646 640 362 395 270 634 543 407 325 368 331 596 428 620 316 389 562 763 367 651 541
-9999 -9999 -9999 -9999 -9999 -9999 -9999 -9999 -9999 -9999 -9999 -9999 -9999 -9999 -9999 -9999 -9999 -9999 -9999 -9999 -9999 -9999 -9999 -9999 -9999 -9999 -9999 -9999 -9999 -9999 -9999 -9999 -9999 -9999 -9999 -9999 -9999 -9999 -9999 -9999 -9999 -9999 -9999 -9999 -9999 -9999 -9999 -9999 -9999 -9999 -9999 -9999 -9999 -9999 -9999 -9999 -9999 -9999 -9999 -9999 -9999 -9999 -9999 -9999 -9999 -9999 -9999 -9999 -9999 140 157 173 165 185 213 221 257 263 237 250 301 290 266 252 273 216 252 270 274 262 274 289 268 313 321 314 296 279 336 327 369 387 337 310 286 253 204 192 178 175 199 231 298 454 410 376 383 472 290 224 171 387 431 490 445 443 319 392 182 288 589 317 424 567 479 224 369 288 265 433 529 239 445 157 258 218 294 311 526 723
-9999 -9999 -9999 -9999 -9999 -9999 -9999 -9999 -9999 -9999 -9999 -9999 -9999 -9999 -9999 -9999 -9999 -9999 -9999 -9999 -9999 -9999 -9999 -9999 -9999 -9999 -9999 -9999 -9999 -9999 -9999 -9999 -9999 -9999 -9999 -9999 -9999 -9999 -9999 -9999 -9999 -9999 -9999 -9999 -9999 -9999 -9999 -9999 -9999 -9999 -9999 -9999 -9999 -9999 -9999 -9999 -9999 -9999 -9999 -9999 -9999 -9999 -9999 -9999 -9999 -9999 -9999 -9999 -9999 -9999 -9999 118 175 161 197 204 233 244 245 222 242 267 244 229 244 243 218 277 278 277 297 298 293 309 304 321 328 318 345 343 377 380 332 346 303 274 252 237 192 182 203 272 303 403 392 409 433 473 442 258 175 253 316 327 335 333 305 207 280 446 597 222 254 239 351 360 312 389 564 319 537 174 271 392 363 413 309 320 581 608
-9999 -9999 -9999 -9999 -9999 -9999 -9999 -9999 -9999 -9999 -9999 -9999 -9999 -9999 -9999 -9999 -9999 -9999 -9999 -9999 -9999 -9999 -9999 -9999 -9999 -9999 -9999 -9999 -9999 -9999 -9999 -9999 -9999 -9999 -9999 -9999 -9999 -9999 -9999 -9999 -9999 -9999 -9999 -9999 -9999 -9999 -9999 -9999 -9999 -9999 -9999 -9999 -9999 -9999 -9999 -9999 -9999 -9999 -9999 -9999 -9999 -9999 -9999 -9999 -9999 -9999 -9999 -9999 -9999 -9999 -9999 -9999 -9999 -9999 113 126 131 130 177 142 164 169 153 177 176 172 173 214 225 245 259 260 250 291 278 303 298 306 330 315 345 359 328 324 309 312 286 244 244 227 290 396 392 402 402 417 399 427 427 400 371 394 299 309 323 345 399 382 113 94 393 196 260 214 260 351 91 94 124 66 84 182 206 586 537 509 693 535 404 604
-9999 -9999 -9999 -9999 -9999 -9999 -9999 -9999 -9999 -9999 -9999 -9999 -9999 -9999 -9999 -9999 -9999 -9999 -9999 -9999 -9999 -9999 -9999 -9999 -9999 -9999 -9999 -9999 -9999 -9999 -9999 -9999 -9999 -9999 -9999 -9999 -9999 -9999 -9999 -9999 -9999 -9999 -9999 -9999 -9999 -9999 -9999 -9999 -9999 -9999 -9999 -9999 -9999 -9999 -9999 -9999 -9999 -9999 -9999 -9999 -9999 -9999 -9999 -9999 -9999 -9999 -9999 -9999 -9999 -9999 -9999 -9999 -9999 -9999 33 46 106 115 123 114 106 127 145 131 135 169 178 189 214 221 249 258 243 266 265 317 302 303 296 316 338 328 332 321 311 321 264 305 318 186 347 376 394 395 393 386 423 414 400 401 402 400 365 398 314 374 423 276 316 68 224 269 197 107 248 296 300 46 90 118 274 227 366 867 753 728 840 543 532 523
-9999 -9999 -9999 -9999 -9999 -9999 -9999 -9999 -9999 -9999 -9999 -9999 -9999 -9999 -9999 -9999 -9999 -9999 -9999 -9999 -9999 -9999 -9999 -9999 -9999 -9999 -9999 -9999 -9999 -9999 -9999 -9999 -9999 -9999 -9999 -9999 -9999 -9999 -9999 -9999 -9999 -9999 -9999 -9999 -9999 -9999 -9999 -9999 -9999 -9999 -9999 -9999 -9999 -9999 -9999 -9999 -9999 -9999 -9999 -9999 -9999 -9999 -9999 -9999 -9999 -9999 -9999 -9999 -9999 -9999 -9999 -9999 -9999 -9999 -9999 -9999 -9999 57 64 90 79 91 113 109 100 128 127 157 197 213 232 250 253 273 269 291 289 266 315 298 321 334 312 328 285 286 299 290 317 176 366 389 409 373 353 405 383 371 376 374 389 394 432 430 434 460 452 511 418 115 139 86 44 80 169 294 276 99 275 217 234 463 357 698 738 743 773 693 775 778
-9999 -9999 -9999 -9999 -9999 -9999 -9999 -9999 -9999 -9999 -9999 -9999 -9999 -9999 -9999 -9999 -9999 -9999 -9999 -9999 -9999 -9999 -9999 -9999 -9999 -9999 -9999 -9999 -9999 -9999 -9999 -9999 -9999 -9999 -9999 -9999 -9999 -9999 -9999 -9999 -9999 -9999 -9999 -9999 -9999 -9999 -9999 -9999 -9999 -9999 -9999 -9999 -9999 -9999 -9999 -9999 -9999 -9999 -9999 -9999 -9999 -9999 -9999 -9999 -9999 -9999 -9999 -9999 -9999 -9999 -9999 -9999 -9999 -9999 -9999 -9999 -9999 -9999 -9999 -9999 -9999 30 58 44 58 55 88 86 110 177 208 219 233 267 261 279 275 263 272 317 311 291 287 301 251 248 270 307 317 305 331 339 339 337 363 302 328 351 332 336 388 365 394 384 397 440 452 481 443 384 124 105 73 56 31 27 415 99 372 535 604 517 574 710 767 814 696 821 735 750
-9999 -9999 -9999 -9999 -9999 -9999 -9999 -9999 -9999 -9999 -9999 -9999 -9999 -9999 -9999 -9999 -9999 -9999 -9999 -9999 -9999 -9999 -9999 -9999 -9999 -9999 -9999 -9999 -9999 -9999 -9999 -9999 -9999 -9999 -9999 -9999 -9999 -9999 -9999 -9999 -9999 -9999 -9999 -9999 -9999 -9999 -9999 -9999 -9999 -9999 -9999 -9999 -9999 -9999 -9999 -9999 -9999 -9999 -9999 -9999 -9999 -9999 -9999 -9999 -9999 -9999 -9999 -9999 -9999 -9999 -9999 -9999 -9999 -9999 -9999 -9999 -9999 -9999 -9999 -9999 -9999 -9999 -9999 24 19 43 26 76 62 127 173 193 189 235 224 250 240 257 280 268 289 282 263 141 184 230 218 144 300 320 311 332 324 299 324 340 348 352 362 351 373 370 379 416 358 395 405 446 380 414 294 323 99 22 205 132 306 415 466 397 534 428 502 623 689 744 750 702 775 763
-9999 -9999 -9999 -9999 -9999 -9999 -9999 -9999 -9999 -9999 -9999 -9999 -9999 -9999 -9999 -9999 -9999 -9999 -9999 -9999 -9999 -9999 -9999 -9999 -9999 -9999 -9999 -9999 -9999 -9999 -9999 -9999 -9999 -9999 -9999 -9999 -9999 -9999 -9999 -9999 -9999 -9999 -9999 -9999 -9999 -9999 -9999 -9999 -9999 -9999 -9999 -9999 -9999 -9999 -9999 -9999 -9999 -9999 -9999 -9999 -9999 -9999 -9999 -9999 -9999 -9999 -9999 -9999 -9999 -9999 -9999 -9999 -9999 -9999 -9999 -9999 -9999 -9999 -9999 -9999 -9999 -9999 -9999 -9999 -9999 -9999 -9999 -9999 -9999 39 100 153 185 215 232 225 214 256 238 244 222 236 216 211 175 179 225 259 269 298 282 293 309 311 304 293 323 338 339 396 345 356 361 354 303 316 352 303 238 311 24 19 338 182 320 409 566 546 516 514 489 490 458 423 535 674 755 601 664 782
-9999 -9999 -9999 -9999 -9999 -9999 -9999 -9999 -9999 -9999 -9999 -9999 -9999 -9999 -9999 -9999 -9999 -9999 -9999 -9999 -9999 -9999 -9999 -9999 -9999 -9999 -9999 -9999 -9999 -9999 -9999 -9999 -9999 -9999 -9999 -9999 -9999 -9999 -9999 -9999 -9999 -9999 -9999 -9999 -9999 -9999 -9999 -9999 -9999 -9999 -9999 -9999 -9999 -9999 -9999 -9999 -9999 -9999 -9999 -9999 -9999 -9999 -9999 -9999 -9999 -9999 -9999 -9999 -9999 -9999 -9999 -9999 -9999 -9999 -9999 -9999 -9999 -9999 -9999 -9999 -9999 -9999 -9999 -9999 -9999 -9999 -9999 -9999 -9999 -9999 40 140 140 185 195 202 219 214 219 237 238 219 208 126 174 187 210 231 265 291 271 280 277 345 369 270 291 305 358 374 366 366 362 310 388 436 284 196 144 151 225 18 270 227 400 460 542 585 567 536 519 416 499 408 416 690 582 562 439 731
-9999 -9999 -9999 -9999 -9999 -9999 -9999 -9999 -9999 -9999 -9999 -9999 -9999 -9999 -9999 -9999 -9999 -9999 -9999 -9999 -9999 -9999 -9999 -9999 -9999 -9999 -9999 -9999 -9999 -9999 -9999 -9999 -9999 -9999 -9999 -9999 -9999 -9999 -9999 -9999 -9999 -9999 -9999 -9999 -9999 -9999 -9999 -9999 -9999 -9999 -9999 -9999 -9999 -9999 -9999 -9999 -9999 -9999 -9999 -9999 -9999 -9999 -9999 -9999 -9999 -9999 -9999 -9999 -9999 -9999 -9999 -9999 -9999 -9999 -9999 -9999 -9999 -9999 -9999 -9999 -9999 -9999 -9999 -9999 -9999 -9999 -9999 -9999 -9999 -9999 -9999 -9999 -9999 88 56 119 123 159 169 180 174 171 145 165 144 178 169 212 215 246 244 206 224 236 233 263 257 295 333 302 352 336 330 362 402 411 346 194 83 82 23 23 384 421 409 531 550 539 524 504 437 389 390 363 356 310 254 401 129 493
-9999 -9999 -9999 -9999 -9999 -9999 -9999 -9999 -9999 -9999 -9999 -9999 -9999 -9999 -9999 -9999 -9999 -9999 -9999 -9999 -9999 -9999 -9999 -9999 -9999 -9999 -9999 -9999 -9999 -9999 -9999 -9999 -9999 -9999 -9999 -9999 -9999 -9999 -9999 -9999 -9999 -9999 -9999 -9999 -9999 -9999 -9999 -9999 -9999 -9999 -9999 -9999 -9999 -9999 -9999 -9999 -9999 -9999 -9999 -9999 -9999 -9999 -9999 -9999 -9999 -9999 -9999 -9999 -9999 -9999 -9999 -9999 -9999 -9999 -9999 -9999 -9999 -9999 -9999 -9999 -9999 -9999 -9999 -9999 -9999 -9999 -9999 -9999 -9999 -9999 -9999 -9999 -9999 -9999 14 60 110 96 170 151 128 119 83 90 28 109 138 157 163 238 227 217 277 198 218 209 195 254 228 347 315 316 340 335 370 355 222 132 14 87 7 15 298 379 541 549 561 532 577 489 460 382 410 313 370 464 134 162 263 471
-9999 -9999 -9999 -9999 -9999 -9999 -9999 -9999 -9999 -9999 -9999 -9999 -9999 -9999 -9999 -9999 -9999 -9999 -9999 -9999 -9999 -9999 -9999 -9999 -9999 -9999 -9999 -9999 -9999 -9999 -9999 -9999 -9999 -9999 -9999 -9999 -9999 -9999 -9999 -9999 -9999 -9999 -9999 -9999 -9999 -9999 -9999 -9999 -9999 -9999 -9999 -9999 -9999 -9999 -9999 -9999 -9999 -9999 -9999 -9999 -9999 -9999 -9999 -9999 -9999 -9999 -9999 -9999 -9999 -9999 -9999 -9999 -9999 -9999 -9999 -9999 -9999 -9999 -9999 -9999 -9999 -9999 -9999 -9999 -9999 -9999 -9999 -9999 -9999 -9999 -9999 -9999 -9999 -9999 -9999 -9999 -9999 11 -9999 -9999 -9999 -9999 -9999 -9999 -9999 52 94 98 67 94 100 136 160 139 134 140 161 36 167 159 227 273 219 284 303 292 150 30 13 9 10 10 192 317 418 591 501 580 494 546 427 331 304 414 541 143 59 102 24 21
-9999 -9999 -9999 -9999 -9999 -9999 -9999 -9999 -9999 -9999 -9999 -9999 -9999 -9999 -9999 -9999 -9999 -9999 -9999 -9999 -9999 -9999 -9999 -9999 -9999 -9999 -9999 -9999 -9999 -9999 -9999 -9999 -9999 -9999 -9999 -9999 -9999 -9999 -9999 -9999 -9999 -9999 -9999 -9999 -9999 -9999 -9999 -9999 -9999 -9999 -9999 -9999 -9999 -9999 -9999 -9999 -9999 -9999 -9999 -9999 -9999 -9999 -9999 -9999 -9999 -9999 -9999 -9999 -9999 -9999 -9999 -9999 -9999 -9999 -9999 -9999 -9999 -9999 -9999 -9999 -9999 -9999 -9999 -9999 -9999 -9999 -9999 -9999 -9999 -9999 -9999 -9999 -9999 -9999 -9999 -9999 -9999 -9999 -9999 -9999 -9999 -9999 -9999 -9999 -9999 -9999 -9999 -9999 -9999 -9999 -9999 47 38 71 70 141 152 124 144 139 190 213 246 261 238 308 111 7 10 10 4 10 58 61 230 410 418 527 437 622 495 307 196 363 302 273 179 20 18 148
-9999 -9999 -9999 -9999 -9999 -9999 -9999 -9999 -9999 -9999 -9999 -9999 -9999 -9999 -9999 -9999 -9999 -9999 -9999 -9999 -9999 -9999 -9999 -9999 -9999 -9999 -9999 -9999 -9999 -9999 -9999 -9999 -9999 -9999 -9999 -9999 -9999 -9999 -9999 -9999 -9999 -9999 -9999 -9999 -9999 -9999 -9999 -9999 -9999 -9999 -9999 -9999 -9999 -9999 -9999 -9999 -9999 -9999 -9999 -9999 -9999 -9999 -9999 -9999 -9999 -9999 -9999 -9999 -9999 -9999 -9999 -9999 -9999 -9999 -9999 -9999 -9999 -9999 -9999 -9999 -9999 -9999 -9999 -9999 -9999 -9999 -9999 -9999 -9999 -9999 -9999 -9999 -9999 -9999 -9999 -9999 -9999 -9999 -9999 -9999 -9999 -9999 -9999 -9999 -9999 -9999 -9999 -9999 -9999 -9999 -9999 -9999 -9999 -9999 -9999 -9999 14 13 58 93 115 214 240 233 278 287 64 -9999 -9999 6 136 142 220 154 320 191 323 529 340 383 350 263 242 153 184 91 6 259 231 270
-9999 -9999 -9999 -9999 -9999 -9999 -9999 -9999 -9999 -9999 -9999 -9999 -9999 -9999 -9999 -9999 -9999 -9999 -9999 -9999 -9999 -9999 -9999 -9999 -9999 -9999 -9999 -9999 -9999 -9999 -9999 -9999 -9999 -9999 -9999 -9999 -9999 -9999 -9999 -9999 -9999 -9999 -9999 -9999 -9999 -9999 -9999 -9999 -9999 -9999 -9999 -9999 -9999 -9999 -9999 -9999 -9999 -9999 -9999 -9999 -9999 -9999 -9999 -9999 -9999 -9999 -9999 -9999 -9999 -9999 -9999 -9999 -9999 -9999 -9999 -9999 -9999 -9999 -9999 -9999 -9999 -9999 -9999 -9999 -9999 -9999 -9999 -9999 -9999 -9999 -9999 -9999 -9999 -9999 -9999 -9999 -9999 -9999 -9999 -9999 -9999 -9999 -9999 -9999 -9999 -9999 -9999 -9999 -9999 -9999 -9999 -9999 -9999 -9999 -9999 -9999 -9999 23 15 34 74 171 177 174 247 222 154 -9999 -9999 -9999 245 340 351 322 94 144 413 377 320 268 297 250 123 56 122 58 14 351 271 201
-9999 -9999 -9999 -9999 -9999 -9999 -9999 -9999 -9999 -9999 -9999 -9999 -9999 -9999 -9999 -9999 -9999 -9999 -9999 -9999 -9999 -9999 -9999 -9999 -9999 -9999 -9999 -9999 -9999 -9999 -9999 -9999 -9999 -9999 -9999 -9999 -9999 -9999 -9999 -9999 -9999 -9999 -9999 -9999 -9999 -9999 -9999 -9999 -9999 -9999 -9999 -9999 -9999 -9999 -9999 -9999 -9999 -9999 -9999 -9999 -9999 -9999 -9999 -9999 -9999 -9999 -9999 -9999 -9999 -9999 -9999 -9999 -9999 -9999 -9999 -9999 -9999 -9999 -9999 -9999 -9999 -9999 -9999 -9999 -9999 -9999 -9999 -9999 -9999 -9999 -9999 -9999 -9999 -9999 -9999 -9999 -9999 -9999 -9999 -9999 -9999 -9999 -9999 -9999 -9999 -9999 -9999 -9999 -9999 -9999 -9999 -9999 -9999 -9999 -9999 -9999 -9999 -9999 -9999 -9999 26 53 58 49 87 141 -9999 -9999 -9999 64 158 118 353 364 306 305 224 172 29 181 121 68 -9999 59 114 92 10 190 147 175
-9999 -9999 -9999 -9999 -9999 -9999 -9999 -9999 -9999 -9999 -9999 -9999 -9999 -9999 -9999 -9999 -9999 -9999 -9999 -9999 -9999 -9999 -9999 -9999 -9999 -9999 -9999 -9999 -9999 -9999 -9999 -9999 -9999 -9999 -9999 -9999 -9999 -9999 -9999 -9999 -9999 -9999 -9999 -9999 -9999 -9999 -9999 -9999 -9999 -9999 -9999 -9999 -9999 -9999 -9999 -9999 -9999 -9999 -9999 -9999 -9999 -9999 -9999 -9999 -9999 -9999 -9999 -9999 -9999 -9999 -9999 -9999 -9999 -9999 -9999 -9999 -9999 -9999 -9999 -9999 -9999 -9999 -9999 -9999 -9999 -9999 -9999 -9999 -9999 -9999 -9999 -9999 -9999 -9999 -9999 -9999 -9999 -9999 -9999 -9999 -9999 -9999 -9999 -9999 -9999 -9999 -9999 -9999 -9999 -9999 -9999 -9999 -9999 -9999 -9999 -9999 -9999 -9999 -9999 -9999 -9999 -9999 -9999 -9999 -9999 -9999 -9999 -9999 -9999 -9999 -9999 105 156 268 190 274 196 69 95 110 -9999 -9999 -9999 -9999 9 -9999 12 87 44 94
-9999 -9999 -9999 -9999 -9999 -9999 -9999 -9999 -9999 -9999 -9999 -9999 -9999 -9999 -9999 -9999 -9999 -9999 -9999 -9999 -9999 -9999 -9999 -9999 -9999 -9999 -9999 -9999 -9999 -9999 -9999 -9999 -9999 -9999 -9999 -9999 -9999 -9999 -9999 -9999 -9999 -9999 -9999 -9999 -9999 -9999 -9999 -9999 -9999 -9999 -9999 -9999 -9999 -9999 -9999 -9999 -9999 -9999 -9999 -9999 -9999 -9999 -9999 -9999 -9999 -9999 -9999 -9999 -9999 -9999 -9999 -9999 -9999 -9999 -9999 -9999 -9999 -9999 -9999 -9999 -9999 -9999 -9999 -9999 -9999 -9999 -9999 -9999 -9999 -9999 -9999 -9999 -9999 -9999 -9999 -9999 -9999 -9999 -9999 -9999 -9999 -9999 -9999 -9999 -9999 -9999 -9999 -9999 -9999 -9999 -9999 -9999 -9999 -9999 -9999 -9999 -9999 -9999 -9999 -9999 -9999 -9999 -9999 -9999 -9999 -9999 -9999 -9999 -9999 -9999 -9999 -9999 238 188 252 129 217 24 17 -9999 -9999 -9999 -9999 -9999 24 -9999 -9999 57 -9999 -9999
-9999 -9999 -9999 -9999 -9999 -9999 -9999 -9999 -9999 -9999 -9999 -9999 -9999 -9999 -9999 -9999 -9999 -9999 -9999 -9999 -9999 -9999 -9999 -9999 -9999 -9999 -9999 -9999 -9999 -9999 -9999 -9999 -9999 -9999 -9999 -9999 -9999 -9999 -9999 -9999 -9999 -9999 -9999 -9999 -9999 -9999 -9999 -9999 -9999 -9999 -9999 -9999 -9999 -9999 -9999 -9999 -9999 -9999 -9999 -9999 -9999 -9999 -9999 -9999 -9999 -9999 -9999 -9999 -9999 -9999 -9999 -9999 -9999 -9999 -9999 -9999 -9999 -9999 -9999 -9999 -9999 -9999 -9999 -9999 -9999 -9999 -9999 -9999 -9999 -9999 -9999 -9999 -9999 -9999 -9999 -9999 -9999 -9999 -9999 -9999 -9999 -9999 -9999 -9999 -9999 -9999 -9999 -9999 -9999 -9999 -9999 -9999 -9999 -9999 -9999 -9999 -9999 -9999 -9999 -9999 -9999 -9999 -9999 -9999 -9999 -9999 -9999 -9999 -9999 -9999 -9999 -9999 -9999 -9999 -9999 -9999 -9999 -9999 -9999 -9999 -9999 -9999 -9999 -9999 -9999 -9999 -9999 -9999 -9999 -9999
-9999 -9999 -9999 -9999 -9999 -9999 -9999 -9999 -9999 -9999 -9999 -9999 -9999 -9999 -9999 -9999 -9999 -9999 -9999 -9999 -9999 -9999 -9999 -9999 -9999 -9999 -9999 -9999 -9999 -9999 -9999 -9999 -9999 -9999 -9999 -9999 -9999 -9999 -9999 -9999 -9999 -9999 -9999 -9999 -9999 -9999 -9999 -9999 -9999 -9999 -9999 -9999 -9999 -9999 -9999 -9999 -9999 -9999 -9999 -9999 -9999 -9999 -9999 -9999 -9999 -9999 -9999 -9999 -9999 -9999 -9999 -9999 -9999 -9999 -9999 -9999 -9999 -9999 -9999 -9999 -9999 -9999 -9999 -9999 -9999 -9999 -9999 -9999 -9999 -9999 -9999 -9999 -9999 -9999 -9999 -9999 -9999 -9999 -9999 -9999 -9999 -9999 -9999 -9999 -9999 -9999 -9999 -9999 -9999 -9999 -9999 -9999 -9999 -9999 -9999 -9999 -9999 -9999 -9999 -9999 -9999 -9999 -9999 -9999 -9999 -9999 -9999 -9999 -9999 -9999 -9999 -9999 -9999 -9999 -9999 -9999 -9999 -9999 -9999 -9999 -9999 -9999 -9999 -9999 -9999 -9999 -9999 -9999 -9999 -9999
-9999 -9999 -9999 -9999 -9999 -9999 -9999 -9999 -9999 -9999 -9999 -9999 -9999 -9999 -9999 -9999 -9999 -9999 -9999 -9999 -9999 -9999 -9999 -9999 -9999 -9999 -9999 -9999 -9999 -9999 -9999 -9999 -9999 -9999 -9999 -9999 -9999 -9999 -9999 -9999 -9999 -9999 -9999 -9999 -9999 -9999 -9999 -9999 -9999 -9999 -9999 -9999 -9999 -9999 -9999 -9999 -9999 -9999 -9999 -9999 -9999 -9999 -9999 -9999 -9999 -9999 -9999 -9999 -9999 -9999 -9999 -9999 -9999 -9999 -9999 -9999 -9999 -9999 -9999 -9999 -9999 -9999 -9999 -9999 -9999 -9999 -9999 -9999 -9999 -9999 -9999 -9999 -9999 -9999 -9999 -9999 -9999 -9999 -9999 -9999 -9999 -9999 -9999 -9999 -9999 -9999 -9999 -9999 -9999 -9999 -9999 -9999 -9999 -9999 -9999 -9999 -9999 -9999 -9999 -9999 -9999 -9999 -9999 -9999 -9999 -9999 -9999 -9999 -9999 -9999 -9999 -9999 -9999 -9999 -9999 -9999 -9999 -9999 -9999 -9999 -9999 -9999 -9999 -9999 -9999 -9999 -9999 -9999 -9999 -9999
-9999 -9999 -9999 -9999 -9999 -9999 -9999 -9999 -9999 -9999 -9999 -9999 -9999 -9999 -9999 -9999 -9999 -9999 -9999 -9999 -9999 -9999 -9999 -9999 -9999 -9999 -9999 -9999 -9999 -9999 -9999 -9999 -9999 -9999 -9999 -9999 -9999 -9999 -9999 -9999 -9999 -9999 -9999 -9999 -9999 -9999 -9999 -9999 -9999 -9999 -9999 -9999 -9999 -9999 -9999 -9999 -9999 -9999 -9999 -9999 -9999 -9999 -9999 -9999 -9999 -9999 -9999 -9999 -9999 -9999 -9999 -9999 -9999 -9999 -9999 -9999 -9999 -9999 -9999 -9999 -9999 -9999 -9999 -9999 -9999 -9999 -9999 -9999 -9999 -9999 -9999 -9999 -9999 -9999 -9999 -9999 -9999 -9999 -9999 -9999 -9999 -9999 -9999 -9999 -9999 -9999 -9999 -9999 -9999 -9999 -9999 -9999 -9999 -9999 -9999 -9999 -9999 -9999 -9999 -9999 -9999 -9999 -9999 -9999 -9999 -9999 -9999 -9999 -9999 -9999 -9999 -9999 -9999 -9999 -9999 -9999 -9999 -9999 -9999 -9999 -9999 -9999 -9999 -9999 -9999 -9999 -9999 -9999 -9999 -9999
-9999 -9999 -9999 -9999 -9999 -9999 -9999 -9999 -9999 -9999 -9999 -9999 -9999 -9999 -9999 -9999 -9999 -9999 -9999 -9999 -9999 -9999 -9999 -9999 -9999 -9999 -9999 -9999 -9999 -9999 -9999 -9999 -9999 -9999 -9999 -9999 -9999 -9999 -9999 -9999 -9999 -9999 -9999 -9999 -9999 -9999 -9999 -9999 -9999 -9999 -9999 -9999 -9999 -9999 -9999 -9999 -9999 -9999 -9999 -9999 -9999 -9999 -9999 -9999 -9999 -9999 -9999 -9999 -9999 -9999 -9999 -9999 -9999 -9999 -9999 -9999 -9999 -9999 -9999 -9999 -9999 -9999 -9999 -9999 -9999 -9999 -9999 -9999 -9999 -9999 -9999 -9999 -9999 -9999 -9999 -9999 -9999 -9999 -9999 -9999 -9999 -9999 -9999 -9999 -9999 -9999 -9999 -9999 -9999 -9999 -9999 -9999 -9999 -9999 -9999 -9999 -9999 -9999 -9999 -9999 -9999 -9999 -9999 -9999 -9999 -9999 -9999 -9999 -9999 -9999 -9999 -9999 -9999 -9999 -9999 -9999 -9999 -9999 -9999 -9999 -9999 -9999 -9999 -9999 -9999 -9999 -9999 -9999 -9999 -9999
-9999 -9999 -9999 -9999 -9999 -9999 -9999 -9999 -9999 -9999 -9999 -9999 -9999 -9999 -9999 -9999 -9999 -9999 -9999 -9999 -9999 -9999 -9999 -9999 -9999 -9999 -9999 -9999 -9999 -9999 -9999 -9999 -9999 -9999 -9999 -9999 -9999 -9999 -9999 -9999 -9999 -9999 -9999 -9999 -9999 -9999 -9999 -9999 -9999 -9999 -9999 -9999 -9999 -9999 -9999 -9999 -9999 -9999 -9999 -9999 -9999 -9999 -9999 -9999 -9999 -9999 -9999 -9999 -9999 -9999 -9999 -9999 -9999 -9999 -9999 -9999 -9999 -9999 -9999 -9999 -9999 -9999 -9999 -9999 -9999 -9999 -9999 -9999 -9999 -9999 -9999 -9999 -9999 -9999 -9999 -9999 -9999 -9999 -9999 -9999 -9999 -9999 -9999 -9999 -9999 -9999 -9999 -9999 -9999 -9999 -9999 -9999 -9999 -9999 -9999 -9999 -9999 -9999 -9999 -9999 -9999 -9999 -9999 -9999 -9999 -9999 -9999 -9999 -9999 -9999 -9999 -9999 -9999 -9999 -9999 -9999 -9999 -9999 -9999 -9999 -9999 -9999 -9999 -9999 -9999 -9999 -9999 -9999 -9999 -9999
-9999 -9999 -9999 -9999 -9999 -9999 -9999 -9999 -9999 -9999 -9999 -9999 -9999 -9999 -9999 -9999 -9999 -9999 -9999 -9999 -9999 -9999 -9999 -9999 -9999 -9999 -9999 -9999 -9999 -9999 -9999 -9999 -9999 -9999 -9999 -9999 -9999 -9999 -9999 -9999 -9999 -9999 -9999 -9999 -9999 -9999 -9999 -9999 -9999 -9999 -9999 -9999 -9999 -9999 -9999 -9999 -9999 -9999 -9999 -9999 -9999 -9999 -9999 -9999 -9999 -9999 -9999 -9999 -9999 -9999 -9999 -9999 -9999 -9999 -9999 -9999 -9999 -9999 -9999 -9999 -9999 -9999 -9999 -9999 -9999 -9999 -9999 -9999 -9999 -9999 -9999 -9999 -9999 -9999 -9999 -9999 -9999 -9999 -9999 -9999 -9999 -9999 -9999 -9999 -9999 -9999 -9999 -9999 -9999 -9999 -9999 -9999 -9999 -9999 -9999 -9999 -9999 -9999 -9999 -9999 -9999 -9999 -9999 -9999 -9999 -9999 -9999 -9999 -9999 -9999 -9999 -9999 -9999 -9999 -9999 -9999 -9999 -9999 -9999 -9999 -9999 -9999 -9999 -9999 -9999 -9999 -9999 -9999 -9999 -9999
-9999 -9999 -9999 -9999 -9999 -9999 -9999 -9999 -9999 -9999 -9999 -9999 -9999 -9999 -9999 -9999 -9999 -9999 -9999 -9999 -9999 -9999 -9999 -9999 -9999 -9999 -9999 -9999 -9999 -9999 -9999 -9999 -9999 -9999 -9999 -9999 -9999 -9999 -9999 -9999 -9999 -9999 -9999 -9999 -9999 -9999 -9999 -9999 -9999 -9999 -9999 -9999 -9999 -9999 -9999 -9999 -9999 -9999 -9999 -9999 -9999 -9999 -9999 -9999 -9999 -9999 -9999 -9999 -9999 -9999 -9999 -9999 -9999 -9999 -9999 -9999 -9999 -9999 -9999 -9999 -9999 -9999 -9999 -9999 -9999 -9999 -9999 -9999 -9999 -9999 -9999 -9999 -9999 -9999 -9999 -9999 -9999 -9999 -9999 -9999 -9999 -9999 -9999 -9999 -9999 -9999 -9999 -9999 -9999 -9999 -9999 -9999 -9999 -9999 -9999 -9999 -9999 -9999 -9999 -9999 -9999 -9999 -9999 -9999 -9999 -9999 -9999 -9999 -9999 -9999 -9999 -9999 -9999 -9999 -9999 -9999 -9999 -9999 -9999 -9999 -9999 -9999 -9999 -9999 -9999 -9999 -9999 -9999 -9999 -9999
-9999 -9999 -9999 -9999 -9999 -9999 -9999 -9999 -9999 -9999 -9999 -9999 -9999 -9999 -9999 -9999 -9999 -9999 -9999 -9999 -9999 -9999 -9999 -9999 -9999 -9999 -9999 -9999 -9999 -9999 -9999 -9999 -9999 -9999 -9999 -9999 -9999 -9999 -9999 -9999 -9999 -9999 -9999 -9999 -9999 -9999 -9999 -9999 -9999 -9999 -9999 -9999 -9999 -9999 -9999 -9999 -9999 -9999 -9999 -9999 -9999 -9999 -9999 -9999 -9999 -9999 -9999 -9999 -9999 -9999 -9999 -9999 -9999 -9999 -9999 -9999 -9999 -9999 -9999 -9999 -9999 -9999 -9999 -9999 -9999 -9999 -9999 -9999 -9999 -9999 -9999 -9999 -9999 -9999 -9999 -9999 -9999 -9999 -9999 -9999 -9999 -9999 -9999 -9999 -9999 -9999 -9999 -9999 -9999 -9999 -9999 -9999 -9999 -9999 -9999 -9999 -9999 -9999 -9999 -9999 -9999 -9999 -9999 -9999 -9999 -9999 -9999 -9999 -9999 -9999 -9999 -9999 -9999 -9999 -9999 -9999 -9999 -9999 -9999 -9999 -9999 -9999 -9999 -9999 -9999 -9999 -9999 -9999 -9999 -9999
-9999 -9999 -9999 -9999 -9999 -9999 -9999 -9999 -9999 -9999 -9999 -9999 -9999 -9999 -9999 -9999 -9999 -9999 -9999 -9999 -9999 -9999 -9999 -9999 -9999 -9999 -9999 -9999 -9999 -9999 -9999 -9999 -9999 -9999 -9999 -9999 -9999 -9999 -9999 -9999 -9999 -9999 -9999 -9999 -9999 -9999 -9999 -9999 -9999 -9999 -9999 -9999 -9999 -9999 -9999 -9999 -9999 -9999 -9999 -9999 -9999 -9999 -9999 -9999 -9999 -9999 -9999 -9999 -9999 -9999 -9999 -9999 -9999 -9999 -9999 -9999 -9999 -9999 -9999 -9999 -9999 -9999 -9999 -9999 -9999 -9999 -9999 -9999 -9999 -9999 -9999 -9999 -9999 -9999 -9999 -9999 -9999 -9999 -9999 -9999 -9999 -9999 -9999 -9999 -9999 -9999 -9999 -9999 -9999 -9999 -9999 -9999 -9999 -9999 -9999 -9999 -9999 -9999 -9999 -9999 -9999 -9999 -9999 -9999 -9999 -9999 -9999 -9999 -9999 -9999 -9999 -9999 -9999 -9999 -9999 -9999 -9999 -9999 -9999 -9999 -9999 -9999 -9999 -9999 -9999 -9999 -9999 -9999 -9999 -9999
-9999 -9999 -9999 -9999 -9999 -9999 -9999 -9999 -9999 -9999 -9999 -9999 -9999 -9999 -9999 -9999 -9999 -9999 -9999 -9999 -9999 -9999 -9999 -9999 -9999 -9999 -9999 -9999 -9999 -9999 -9999 -9999 -9999 -9999 -9999 -9999 -9999 -9999 -9999 -9999 -9999 -9999 -9999 -9999 -9999 -9999 -9999 -9999 -9999 -9999 -9999 -9999 -9999 -9999 -9999 -9999 -9999 -9999 -9999 -9999 -9999 -9999 -9999 -9999 -9999 -9999 -9999 -9999 -9999 -9999 -9999 -9999 -9999 -9999 -9999 -9999 -9999 -9999 -9999 -9999 -9999 -9999 -9999 -9999 -9999 -9999 -9999 -9999 -9999 -9999 -9999 -9999 -9999 -9999 -9999 -9999 -9999 -9999 -9999 -9999 -9999 -9999 -9999 -9999 -9999 -9999 -9999 -9999 -9999 -9999 -9999 -9999 -9999 -9999 -9999 -9999 -9999 -9999 -9999 -9999 -9999 -9999 -9999 -9999 -9999 -9999 -9999 -9999 -9999 -9999 -9999 -9999 -9999 -9999 -9999 -9999 -9999 -9999 -9999 -9999 -9999 -9999 -9999 -9999 -9999 -9999 -9999 -9999 -9999 -9999
-9999 -9999 -9999 -9999 -9999 -9999 -9999 -9999 -9999 -9999 -9999 -9999 -9999 -9999 -9999 -9999 -9999 -9999 -9999 -9999 -9999 -9999 -9999 -9999 -9999 -9999 -9999 -9999 -9999 -9999 -9999 -9999 -9999 -9999 -9999 -9999 -9999 -9999 -9999 -9999 -9999 -9999 -9999 -9999 -9999 -9999 -9999 -9999 -9999 -9999 -9999 -9999 -9999 -9999 -9999 -9999 -9999 -9999 -9999 -9999 -9999 -9999 -9999 -9999 -9999 -9999 -9999 -9999 -9999 -9999 -9999 -9999 -9999 -9999 -9999 -9999 -9999 -9999 -9999 -9999 -9999 -9999 -9999 -9999 -9999 -9999 -9999 -9999 -9999 -9999 -9999 -9999 -9999 -9999 -9999 -9999 -9999 -9999 -9999 -9999 -9999 -9999 -9999 -9999 -9999 -9999 -9999 -9999 -9999 -9999 -9999 -9999 -9999 -9999 -9999 -9999 -9999 -9999 -9999 -9999 -9999 -9999 -9999 -9999 -9999 -9999 -9999 -9999 -9999 -9999 -9999 -9999 -9999 -9999 -9999 -9999 -9999 -9999 -9999 -9999 -9999 -9999 -9999 -9999 -9999 -9999 -9999 -9999 -9999 -9999
