ncols         151
nrows         140
xllcorner     113512
yllcorner     1573425
cellsize      1342
NODATA_value  -9999
-9999 -9999 -9999 -9999 -9999 -9999 -9999 -9999 -9999 -9999 -9999 -9999 -9999 -9999 -9999 -9999 -9999 -9999 -9999 -9999 -9999 -9999 -9999 -9999 -9999 -9999 -9999 -9999 -9999 -9999 -9999 -9999 -9999 -9999 -9999 -9999 -9999 -9999 -9999 -9999 15 29 37 34 122 200 137 145 238 234 155 162 254 243 383 395 511 367 282 314 231 183 146 45 76 46 22 14 6 8 10 6 3 16 11 14 11 7 11 14 11 11 17 15 14 17 21 43 49 76 69 37 29 25 24 29 31 31 31 34 34 38 37 41 41 41 46 49 55 57 60 80 77 81 90 104 109 129 142 162 174 253 320 537 750 550 522 303 280 231 284 379 364 371 360 274 280 326 286 267 274 340 420 591 647 776 850 641 667 1104 973
-9999 -9999 -9999 -9999 -9999 -9999 -9999 -9999 -9999 -9999 -9999 -9999 -9999 -9999 -9999 -9999 -9999 -9999 -9999 -9999 -9999 -9999 -9999 -9999 -9999 -9999 -9999 -9999 -9999 -9999 -9999 -9999 -9999 -9999 -9999 -9999 -9999 -9999 -9999 -9999 11 12 35 37 87 77 135 181 159 167 177 178 191 216 352 320 442 326 272 188 166 212 82 155 92 62 24 9 8 9 3 11 10 17 10 12 8 9 12 12 17 11 13 15 15 15 16 43 44 49 46 34 27 24 25 30 33 30 31 37 39 41 40 43 43 45 54 57 60 66 66 67 80 81 88 100 108 130 133 155 159 203 274 444 632 546 617 401 292 263 333 559 364 376 323 289 269 234 265 268 221 390 397 405 560 684 731 609 609 845 1013
-9999 -9999 -9999 -9999 -9999 -9999 -9999 -9999 -9999 -9999 -9999 -9999 -9999 -9999 -9999 -9999 -9999 -9999 -9999 -9999 -9999 -9999 -9999 -9999 -9999 -9999 -9999 -9999 -9999 -9999 -9999 -9999 -9999 -9999 -9999 -9999 -9999 -9999 -9999 -9999 8 37 27 49 155 263 156 120 102 138 107 92 145 139 132 255 352 441 420 274 366 139 214 150 147 55 40 19 15 9 9 13 13 16 17 17 11 8 11 19 13 16 15 17 15 17 20 39 48 49 42 27 26 27 27 31 26 29 32 35 35 43 45 59 51 50 48 61 66 76 75 82 83 93 98 100 99 115 124 145 155 167 163 249 390 577 703 691 514 264 193 674 586 313 266 256 298 277 294 202 221 248 300 466 583 590 748 623 507 647 800
-9999 -9999 -9999 -9999 -9999 -9999 -9999 -9999 -9999 -9999 -9999 -9999 -9999 -9999 -9999 -9999 -9999 -9999 -9999 -9999 -9999 -9999 -9999 -9999 -9999 -9999 -9999 -9999 -9999 -9999 -9999 -9999 -9999 -9999 -9999 -9999 -9999 -9999 -9999 -9999 -9999 15 29 50 81 130 111 123 156 96 79 79 167 212 229 231 325 526 473 405 471 197 215 152 187 88 62 31 20 7 7 14 11 12 17 11 10 13 10 20 16 11 10 19 16 21 17 18 21 21 22 26 26 30 31 27 21 29 31 32 36 61 72 103 69 54 50 52 59 59 74 80 91 109 127 113 97 114 120 137 146 151 157 188 287 420 592 467 573 364 268 476 705 580 551 234 276 202 209 236 231 278 295 329 351 518 568 728 412 436 543
-9999 -9999 -9999 -9999 -9999 -9999 -9999 -9999 -9999 -9999 -9999 -9999 -9999 -9999 -9999 -9999 -9999 -9999 -9999 -9999 -9999 -9999 -9999 -9999 -9999 -9999 -9999 -9999 -9999 -9999 -9999 -9999 -9999 -9999 -9999 -9999 -9999 -9999 -9999 -9999 -9999 6 15 26 31 155 87 203 146 105 125 239 142 163 253 276 253 557 556 527 284 452 534 368 299 184 93 76 38 9 10 13 13 11 11 14 11 11 13 16 15 13 13 20 19 18 18 21 20 26 25 23 27 33 26 23 25 31 31 32 35 64 90 250 97 74 63 54 64 62 75 79 81 103 117 117 101 106 109 115 121 131 147 165 199 432 403 415 334 429 162 423 358 512 531 337 204 202 202 201 269 286 300 319 330 532 639 514 408 535 599
-9999 -9999 -9999 -9999 -9999 -9999 -9999 -9999 -9999 -9999 -9999 -9999 -9999 -9999 -9999 -9999 -9999 -9999 -9999 -9999 -9999 -9999 -9999 -9999 -9999 -9999 -9999 -9999 -9999 -9999 -9999 -9999 -9999 -9999 -9999 -9999 -9999 -9999 -9999 -9999 -9999 -9999 46 10 20 35 137 163 109 84 194 224 259 110 200 222 267 474 497 422 298 781 494 294 228 191 157 115 15 12 17 9 12 14 22 9 8 9 12 13 15 19 16 15 18 17 20 21 20 20 29 24 23 21 23 24 27 31 32 32 33 69 78 167 90 84 69 61 66 71 66 114 139 108 127 105 97 99 98 108 110 125 134 153 264 384 349 252 366 326 244 318 266 403 377 280 286 293 285 202 202 272 279 309 408 507 466 334 300 456 659
-9999 -9999 -9999 -9999 -9999 -9999 -9999 -9999 -9999 -9999 -9999 -9999 -9999 -9999 -9999 -9999 -9999 -9999 -9999 -9999 -9999 -9999 -9999 -9999 -9999 -9999 -9999 -9999 -9999 -9999 -9999 -9999 -9999 -9999 -9999 -9999 -9999 -9999 -9999 -9999 -9999 9 10 25 20 20 53 53 99 94 104 168 164 251 206 276 233 252 399 476 488 550 587 507 409 241 199 59 25 18 14 13 8 15 19 10 11 8 18 14 13 15 20 18 19 19 23 21 23 25 26 20 22 21 25 24 25 28 30 30 28 56 60 60 72 71 84 62 74 83 104 135 301 260 120 110 108 92 95 98 100 108 113 131 144 202 234 283 301 336 241 218 275 402 386 309 351 244 205 202 202 202 214 260 279 489 339 334 407 573 639
-9999 -9999 -9999 -9999 -9999 -9999 -9999 -9999 -9999 -9999 -9999 -9999 -9999 -9999 -9999 -9999 -9999 -9999 -9999 -9999 -9999 -9999 -9999 -9999 -9999 -9999 -9999 -9999 -9999 -9999 -9999 -9999 -9999 -9999 -9999 -9999 -9999 -9999 -9999 9 9 28 22 17 22 20 35 88 100 60 77 117 131 315 292 396 316 323 377 546 448 430 381 468 501 174 301 58 39 29 19 14 9 15 12 13 14 9 10 16 16 14 14 17 27 26 25 21 20 20 19 20 18 22 22 23 23 30 28 28 30 38 41 52 62 72 86 68 88 92 127 162 185 137 140 129 113 93 90 95 95 103 104 128 137 149 193 380 229 136 132 149 186 474 602 387 328 202 202 253 212 202 202 202 202 320 356 403 658 403 384
-9999 -9999 -9999 -9999 -9999 -9999 -9999 -9999 -9999 -9999 -9999 -9999 -9999 -9999 -9999 -9999 -9999 -9999 -9999 -9999 -9999 -9999 -9999 -9999 -9999 -9999 -9999 -9999 -9999 -9999 -9999 18 10 -9999 -9999 -9999 -9999 -9999 -9999 -9999 12 8 7 9 14 14 16 25 44 111 106 108 286 454 528 446 361 417 328 503 491 233 177 376 395 116 144 102 43 23 19 13 12 11 14 14 14 12 12 13 11 14 13 19 40 25 24 23 24 19 18 19 16 20 21 21 20 28 29 29 27 40 46 63 73 79 76 92 90 80 86 88 99 114 133 126 124 92 90 85 87 91 101 119 127 131 131 251 132 133 128 135 225 411 524 422 344 202 233 299 258 213 202 202 202 208 212 397 465 413 306
-9999 -9999 -9999 -9999 -9999 -9999 -9999 -9999 -9999 -9999 -9999 -9999 -9999 -9999 -9999 -9999 -9999 -9999 -9999 -9999 -9999 -9999 -9999 -9999 -9999 -9999 -9999 -9999 -9999 -9999 -9999 -9999 30 -9999 -9999 -9999 -9999 -9999 -9999 -9999 14 9 9 10 11 13 15 24 43 149 250 378 354 457 534 506 415 482 396 550 339 442 270 233 164 336 408 136 53 24 21 20 14 11 13 23 15 19 16 16 15 14 14 21 32 27 18 23 20 20 17 19 18 19 19 19 21 27 27 25 26 52 41 54 63 80 71 97 103 88 79 92 108 115 129 124 120 94 87 84 81 90 90 102 108 109 107 110 115 112 123 136 152 357 381 330 216 133 306 239 319 287 268 233 231 206 241 311 275 240 259
-9999 -9999 -9999 -9999 -9999 -9999 -9999 -9999 -9999 -9999 -9999 -9999 -9999 -9999 -9999 -9999 -9999 -9999 -9999 -9999 -9999 -9999 -9999 -9999 -9999 -9999 -9999 -9999 -9999 -9999 -9999 -9999 12 -9999 -9999 -9999 -9999 -9999 -9999 -9999 -9999 7 9 6 11 16 22 89 70 110 202 431 406 271 366 427 339 515 471 587 404 558 287 326 447 481 315 151 53 28 24 17 24 17 14 18 16 15 20 14 15 21 15 16 25 20 16 18 18 18 18 16 16 16 18 19 20 24 23 29 24 32 34 42 47 83 102 145 126 113 99 70 76 85 96 103 105 96 90 80 77 81 85 97 98 100 101 108 109 111 113 130 142 302 276 310 196 190 217 317 350 391 343 321 355 284 224 303 305 287 272
-9999 -9999 -9999 -9999 -9999 -9999 -9999 -9999 -9999 -9999 -9999 -9999 -9999 -9999 -9999 -9999 -9999 -9999 -9999 -9999 -9999 -9999 -9999 -9999 -9999 -9999 -9999 -9999 -9999 -9999 -9999 -9999 -9999 -9999 -9999 -9999 -9999 -9999 -9999 -9999 -9999 11 7 10 38 71 84 79 215 224 226 408 358 278 332 304 326 429 533 657 473 270 399 598 496 315 246 139 94 39 27 22 19 19 20 13 13 12 17 16 15 23 18 16 26 21 20 15 17 17 16 13 15 18 19 21 23 22 24 26 24 28 33 43 42 77 106 261 159 124 91 70 70 98 86 84 84 89 95 100 70 79 82 87 89 92 99 105 110 105 109 119 136 174 246 204 126 201 268 286 365 357 333 398 422 402 262 274 318 616 502
-9999 -9999 -9999 -9999 -9999 -9999 -9999 -9999 -9999 -9999 -9999 -9999 -9999 -9999 -9999 -9999 -9999 -9999 -9999 -9999 -9999 -9999 -9999 -9999 -9999 -9999 -9999 -9999 -9999 -9999 -9999 -9999 -9999 -9999 -9999 -9999 -9999 -9999 -9999 -9999 -9999 6 3 28 20 166 278 296 380 391 216 561 239 536 386 407 483 444 585 668 479 370 546 614 577 525 497 239 213 70 41 32 24 19 15 14 14 16 17 17 15 18 21 19 18 17 18 16 16 15 16 13 17 17 17 20 26 20 26 24 24 22 26 31 32 58 83 111 110 104 98 66 74 73 72 80 73 84 101 85 71 76 80 86 88 93 95 101 102 101 104 122 131 169 213 199 118 108 212 261 301 247 286 435 496 345 297 312 343 599 644
-9999 -9999 -9999 -9999 -9999 -9999 -9999 -9999 -9999 -9999 -9999 -9999 -9999 -9999 -9999 -9999 -9999 -9999 -9999 -9999 -9999 -9999 -9999 -9999 -9999 -9999 -9999 -9999 -9999 -9999 -9999 -9999 -9999 -9999 -9999 -9999 -9999 -9999 -9999 10 10 7 8 10 33 183 294 445 509 460 368 371 214 588 403 728 689 674 753 889 912 768 715 507 324 212 240 359 233 99 86 39 24 25 20 16 14 14 13 13 13 15 15 20 26 20 19 16 16 14 15 14 14 18 17 20 21 21 21 23 22 19 22 27 34 54 69 76 78 86 76 66 61 63 64 66 69 73 71 71 62 72 75 85 84 89 90 93 94 99 101 107 118 139 174 260 141 146 166 148 164 436 317 473 426 365 317 314 354 488 650
-9999 -9999 -9999 -9999 -9999 -9999 -9999 -9999 -9999 -9999 -9999 -9999 -9999 -9999 -9999 -9999 -9999 -9999 -9999 -9999 -9999 -9999 -9999 -9999 -9999 -9999 -9999 -9999 -9999 -9999 -9999 -9999 -9999 -9999 12 -9999 -9999 -9999 12 16 7 10 13 39 32 152 94 137 99 353 401 183 277 307 310 487 636 847 922 784 902 675 591 623 662 235 303 131 265 90 59 53 38 27 25 17 23 18 14 14 13 16 16 17 44 19 19 19 17 21 17 16 15 19 21 18 21 19 23 23 21 21 21 26 31 45 53 65 69 75 67 60 61 58 59 63 64 68 64 65 67 70 74 80 82 86 88 91 93 90 100 99 106 115 138 214 117 164 135 129 154 388 420 288 332 525 536 403 413 596 751
-9999 -9999 -9999 -9999 -9999 -9999 -9999 -9999 -9999 -9999 -9999 -9999 -9999 -9999 -9999 -9999 -9999 -9999 -9999 -9999 -9999 -9999 -9999 -9999 -9999 -9999 -9999 -9999 -9999 -9999 -9999 -9999 -9999 -9999 -9999 -9999 -9999 -9999 -9999 5 11 13 34 22 20 103 43 69 214 89 143 397 609 536 549 450 552 638 620 738 921 1023 856 676 440 505 349 148 246 208 124 120 72 79 51 21 22 22 15 14 14 20 21 22 31 19 21 18 16 19 19 18 17 18 22 19 20 22 19 25 19 21 21 24 28 36 41 46 51 51 55 54 55 51 54 58 56 57 64 60 65 69 72 78 78 80 84 87 88 87 93 114 104 90 100 158 95 119 129 120 153 278 244 266 353 500 644 632 487 849 731
-9999 -9999 -9999 -9999 -9999 -9999 -9999 -9999 -9999 -9999 -9999 -9999 -9999 -9999 -9999 -9999 -9999 -9999 -9999 -9999 -9999 -9999 -9999 -9999 -9999 -9999 -9999 -9999 -9999 -9999 -9999 -9999 -9999 -9999 -9999 -9999 -9999 -9999 -9999 -9999 6 -9999 11 79 22 34 146 195 339 308 474 372 518 692 551 469 610 429 505 687 856 984 925 696 737 590 285 388 533 331 216 149 136 94 74 39 31 25 21 15 19 18 24 17 23 20 20 20 18 20 21 21 22 18 18 19 20 19 24 20 21 21 22 24 24 36 35 38 43 46 47 53 52 51 51 55 57 55 59 65 68 67 74 74 76 79 79 82 87 89 92 93 94 93 89 87 127 89 122 123 114 138 176 208 369 550 616 577 578 697 831
-9999 -9999 -9999 -9999 -9999 -9999 -9999 -9999 -9999 -9999 -9999 -9999 -9999 -9999 -9999 -9999 -9999 -9999 -9999 -9999 -9999 -9999 -9999 -9999 -9999 -9999 -9999 -9999 -9999 -9999 -9999 -9999 -9999 -9999 -9999 -9999 -9999 -9999 -9999 -9999 -9999 -9999 -9999 9 7 33 56 412 390 631 671 561 636 656 471 415 370 428 579 755 831 720 600 410 375 510 539 556 682 389 223 218 174 103 79 45 35 24 18 18 17 20 25 18 18 28 20 20 20 18 21 18 19 18 19 18 17 21 19 21 21 22 22 22 23 26 32 34 39 47 46 45 44 46 47 50 51 54 57 58 62 65 66 71 71 74 76 76 82 83 90 91 89 92 89 81 80 86 138 157 137 105 128 151 212 412 554 555 670 648 832
-9999 -9999 -9999 -9999 -9999 -9999 -9999 -9999 -9999 -9999 -9999 -9999 -9999 -9999 -9999 -9999 -9999 -9999 -9999 -9999 -9999 -9999 -9999 -9999 -9999 -9999 -9999 -9999 -9999 -9999 -9999 -9999 -9999 -9999 -9999 -9999 -9999 -9999 -9999 -9999 -9999 -9999 -9999 35 20 31 101 414 570 596 784 560 706 620 460 327 310 489 447 664 791 958 613 569 443 695 786 859 753 564 357 504 270 142 94 42 37 39 34 24 19 25 26 18 18 33 21 29 19 21 23 20 20 20 18 19 18 19 20 19 20 21 21 23 28 27 32 36 38 41 43 44 41 44 47 49 50 54 53 62 63 63 63 69 71 71 73 74 77 79 81 86 80 83 85 82 79 80 82 105 84 91 108 147 213 253 388 532 440 611 763
-9999 -9999 -9999 -9999 -9999 -9999 -9999 -9999 -9999 -9999 -9999 -9999 -9999 -9999 -9999 -9999 -9999 -9999 -9999 -9999 -9999 -9999 -9999 -9999 -9999 -9999 -9999 -9999 -9999 -9999 -9999 -9999 -9999 -9999 -9999 -9999 -9999 -9999 -9999 -9999 -9999 -9999 -9999 2 5 41 160 199 376 547 465 533 764 464 362 262 354 573 631 968 882 1149 919 425 554 1003 892 1037 954 487 369 547 251 157 85 55 60 51 34 24 21 25 22 19 23 33 27 21 20 20 21 20 21 20 20 18 16 19 22 22 20 20 22 25 26 30 31 32 35 37 41 40 42 42 45 47 47 50 52 57 59 58 60 66 67 69 71 75 71 78 81 80 82 78 80 81 79 78 78 79 85 92 134 122 152 243 343 423 324 646 678
-9999 -9999 -9999 -9999 -9999 -9999 -9999 -9999 -9999 -9999 -9999 -9999 -9999 -9999 -9999 -9999 -9999 -9999 -9999 -9999 -9999 -9999 -9999 -9999 -9999 -9999 -9999 -9999 -9999 -9999 -9999 -9999 -9999 -9999 -9999 -9999 -9999 -9999 -9999 -9999 -9999 -9999 -9999 9 9 30 158 393 200 302 422 477 699 463 525 264 360 488 646 1118 989 1169 845 810 965 1154 1311 1174 926 840 786 790 676 275 112 110 63 33 27 27 24 31 23 22 22 38 45 33 31 26 21 22 22 20 22 22 20 20 19 24 21 22 20 26 28 31 32 34 36 36 36 40 41 41 41 47 44 49 51 55 55 53 57 63 62 64 66 69 73 69 76 75 74 74 76 78 73 73 72 74 80 85 156 223 216 215 199 218 377 364 556
-9999 -9999 -9999 -9999 -9999 -9999 -9999 -9999 -9999 -9999 -9999 -9999 -9999 -9999 -9999 -9999 -9999 -9999 -9999 -9999 -9999 -9999 -9999 -9999 -9999 -9999 -9999 -9999 -9999 -9999 -9999 -9999 -9999 -9999 -9999 -9999 -9999 -9999 -9999 -9999 -9999 -9999 -9999 9 7 24 120 286 413 910 930 1111 853 338 220 197 328 787 858 1146 1062 1276 975 850 1061 1365 1426 1225 1090 1090 961 682 552 250 146 99 129 36 30 26 29 28 23 22 22 59 61 50 28 21 24 23 23 23 21 22 21 20 23 22 28 21 20 23 24 29 30 32 36 36 42 38 42 46 47 44 47 47 50 56 54 52 57 59 59 62 61 67 70 67 74 73 71 71 75 76 73 71 71 74 77 86 102 111 131 141 166 177 308 297 443
-9999 -9999 -9999 -9999 -9999 -9999 -9999 -9999 -9999 -9999 -9999 -9999 -9999 -9999 -9999 -9999 -9999 -9999 -9999 -9999 -9999 -9999 -9999 -9999 -9999 -9999 -9999 -9999 -9999 -9999 -9999 -9999 -9999 -9999 -9999 -9999 -9999 -9999 -9999 -9999 -9999 -9999 -9999 10 7 18 127 416 471 804 805 911 957 407 352 301 457 363 614 935 781 1275 1328 1373 1382 1575 1471 1298 1256 946 921 406 442 270 104 87 66 43 36 28 25 43 24 26 26 51 55 53 32 26 22 26 25 22 22 23 24 21 20 23 23 24 22 24 25 27 30 30 32 33 38 39 39 41 44 39 42 49 48 49 46 49 50 54 56 59 60 60 59 66 68 67 67 70 70 72 71 68 66 70 77 82 94 104 123 161 318 439 312 301 424
-9999 -9999 -9999 -9999 -9999 -9999 -9999 -9999 -9999 -9999 -9999 -9999 -9999 -9999 -9999 -9999 -9999 -9999 -9999 -9999 -9999 -9999 -9999 -9999 -9999 -9999 -9999 -9999 -9999 -9999 -9999 -9999 -9999 -9999 -9999 -9999 -9999 -9999 -9999 -9999 -9999 9 13 4 12 10 36 160 268 596 356 600 366 494 302 358 348 681 724 1018 927 1257 1464 1449 1398 1426 1302 1252 1155 1160 964 612 546 281 245 149 61 56 41 32 30 43 31 31 26 28 37 52 35 31 23 27 24 26 25 25 25 24 25 24 24 24 23 22 24 28 32 27 35 33 34 36 37 40 40 42 42 42 46 49 44 49 52 51 57 56 58 55 62 61 59 62 65 68 70 71 71 65 66 69 76 81 89 95 112 208 326 534 514 402 606
-9999 -9999 -9999 -9999 -9999 -9999 -9999 -9999 -9999 -9999 -9999 -9999 -9999 -9999 -9999 -9999 -9999 -9999 -9999 -9999 -9999 -9999 -9999 -9999 -9999 -9999 -9999 -9999 -9999 -9999 -9999 -9999 -9999 -9999 -9999 -9999 -9999 -9999 -9999 -9999 -9999 9 10 11 12 30 41 90 207 209 174 279 198 130 122 338 545 330 346 678 1026 1349 1375 1017 982 1126 1027 874 791 823 854 587 529 462 357 166 59 47 60 46 42 37 37 31 31 26 75 47 30 33 29 25 27 27 26 31 24 25 26 25 28 28 21 24 30 26 26 28 32 30 33 33 33 39 36 37 39 41 47 43 46 47 48 49 52 53 52 57 57 55 61 61 62 63 67 66 69 68 61 63 70 74 73 85 100 173 515 548 591 647 421
-9999 -9999 -9999 -9999 -9999 -9999 -9999 -9999 -9999 -9999 -9999 -9999 -9999 -9999 -9999 -9999 -9999 -9999 -9999 -9999 -9999 -9999 -9999 -9999 -9999 -9999 -9999 -9999 -9999 -9999 -9999 -9999 -9999 -9999 -9999 -9999 -9999 -9999 -9999 -9999 -9999 -9999 8 10 12 35 52 32 34 91 125 111 164 191 373 473 226 427 700 997 1087 1404 1376 1186 860 917 721 654 893 769 690 907 486 473 161 155 75 61 49 67 67 51 51 55 53 33 60 65 44 28 59 31 28 28 30 30 29 29 27 27 28 24 25 24 24 23 24 26 27 29 29 32 40 37 38 37 38 41 43 42 44 45 49 44 51 50 54 53 55 59 60 60 60 63 63 65 67 66 61 58 66 67 75 75 79 91 425 568 678 947 742
-9999 -9999 -9999 -9999 -9999 -9999 -9999 -9999 -9999 -9999 -9999 -9999 -9999 -9999 -9999 -9999 -9999 -9999 -9999 -9999 -9999 -9999 -9999 -9999 -9999 -9999 -9999 -9999 -9999 -9999 -9999 -9999 -9999 -9999 -9999 -9999 -9999 -9999 -9999 -9999 -9999 -9999 6 9 19 25 38 23 36 153 244 192 261 213 197 238 431 621 661 764 1140 1155 1284 1229 996 802 748 587 707 638 827 545 416 422 198 118 92 60 57 58 75 69 51 58 52 44 53 69 38 36 37 28 31 31 32 32 33 31 29 27 26 27 27 26 24 26 27 30 25 27 31 33 30 30 38 38 39 40 41 40 43 42 44 46 45 48 49 48 49 54 57 59 56 58 62 62 58 58 59 59 64 64 67 71 70 79 252 274 667 970 1010
-9999 -9999 -9999 -9999 -9999 -9999 -9999 -9999 -9999 -9999 -9999 -9999 -9999 -9999 -9999 -9999 -9999 -9999 -9999 -9999 -9999 -9999 -9999 -9999 -9999 -9999 -9999 -9999 -9999 -9999 -9999 -9999 -9999 -9999 -9999 -9999 -9999 -9999 -9999 -9999 -9999 -9999 14 -9999 19 17 23 74 40 149 197 96 128 97 101 192 391 809 530 596 886 906 1339 1377 1244 940 712 452 669 527 703 545 533 506 171 125 76 70 69 66 77 94 54 70 92 56 39 64 56 103 60 61 33 31 31 33 33 36 29 32 26 27 25 24 23 22 24 24 26 24 30 30 31 34 35 34 37 40 41 38 42 43 41 44 43 47 49 52 49 54 55 55 59 57 60 52 54 59 67 59 60 65 67 70 72 72 103 286 477 432 794
-9999 -9999 -9999 -9999 -9999 -9999 -9999 -9999 -9999 -9999 -9999 -9999 -9999 -9999 -9999 -9999 -9999 -9999 -9999 -9999 -9999 -9999 -9999 -9999 -9999 -9999 -9999 -9999 -9999 -9999 -9999 -9999 -9999 -9999 -9999 -9999 -9999 -9999 -9999 -9999 -9999 -9999 -9999 -9999 28 22 21 56 266 284 206 235 285 317 274 295 226 409 230 354 936 1063 1600 1407 1092 946 775 512 617 551 567 337 310 446 244 189 124 80 75 73 83 102 58 93 63 57 45 51 88 61 56 44 39 32 34 35 34 32 29 31 28 28 27 29 23 25 24 22 27 27 26 27 32 31 33 31 34 36 38 39 39 39 42 42 40 44 46 47 46 47 52 52 54 58 55 51 49 60 83 76 60 61 69 68 76 75 109 151 539 639 1166
-9999 -9999 -9999 -9999 -9999 -9999 -9999 -9999 -9999 -9999 -9999 -9999 -9999 -9999 -9999 -9999 -9999 -9999 -9999 -9999 -9999 -9999 -9999 -9999 -9999 -9999 -9999 -9999 -9999 -9999 -9999 -9999 -9999 -9999 -9999 -9999 -9999 -9999 -9999 -9999 -9999 -9999 -9999 40 7 38 13 35 381 373 569 596 537 435 289 388 350 267 474 301 701 841 1367 1511 1060 847 692 574 586 361 278 300 298 420 300 130 121 107 101 87 75 74 77 88 114 95 70 75 80 66 89 45 38 35 36 40 33 36 32 34 29 29 28 25 23 21 23 23 25 25 26 27 26 28 29 31 33 33 34 34 38 41 40 37 42 41 44 43 44 47 48 49 51 54 51 52 79 79 171 120 67 64 68 73 107 88 82 105 207 249 772
-9999 -9999 -9999 -9999 -9999 -9999 -9999 -9999 -9999 -9999 -9999 -9999 -9999 -9999 -9999 -9999 -9999 -9999 -9999 -9999 -9999 -9999 -9999 -9999 -9999 -9999 -9999 -9999 -9999 -9999 -9999 -9999 -9999 -9999 -9999 -9999 -9999 -9999 -9999 -9999 -9999 -9999 -9999 -9999 8 10 22 35 202 463 956 855 888 850 566 737 469 812 1104 873 434 742 1214 1487 1065 890 662 527 501 299 448 490 175 165 133 147 138 117 110 92 71 74 76 93 142 91 77 116 82 74 54 47 40 44 35 40 38 37 36 32 32 32 27 26 23 23 23 22 23 22 22 26 27 25 26 27 30 30 33 35 37 38 40 37 39 38 42 42 43 46 41 45 47 48 44 46 74 84 120 204 70 101 88 81 133 106 98 86 151 201 718
-9999 -9999 -9999 -9999 -9999 -9999 -9999 -9999 -9999 -9999 -9999 -9999 -9999 -9999 -9999 -9999 -9999 -9999 -9999 -9999 -9999 -9999 -9999 -9999 -9999 -9999 -9999 -9999 -9999 -9999 -9999 -9999 -9999 -9999 -9999 -9999 -9999 -9999 -9999 -9999 -9999 -9999 -9999 -9999 9 13 56 35 186 390 856 786 926 1048 818 760 550 753 1256 1124 434 837 1053 955 1331 1186 810 595 467 491 729 586 655 662 269 349 352 193 116 98 131 138 165 177 140 136 100 98 119 90 85 68 46 36 43 42 40 37 37 34 31 30 26 26 24 21 22 20 22 27 23 24 26 27 27 32 28 32 29 31 37 33 39 40 37 41 41 36 37 38 42 41 45 46 63 64 70 77 111 217 80 193 170 224 233 202 115 147 174 104 411
-9999 -9999 -9999 -9999 -9999 -9999 -9999 -9999 -9999 -9999 -9999 -9999 -9999 -9999 -9999 -9999 -9999 -9999 -9999 -9999 -9999 -9999 -9999 -9999 -9999 -9999 -9999 -9999 -9999 -9999 -9999 -9999 -9999 -9999 -9999 -9999 -9999 -9999 -9999 -9999 12 22 -9999 -9999 -9999 10 40 50 118 331 687 535 651 751 1242 1110 1220 1286 1352 878 693 467 897 1083 1348 1146 731 724 343 623 798 723 715 510 367 418 437 246 124 102 98 112 221 227 192 146 94 112 104 88 67 66 52 59 52 44 42 40 39 34 33 33 32 28 23 24 21 21 22 23 21 25 25 22 25 26 29 32 32 32 34 34 36 35 36 39 38 35 43 40 41 41 44 47 64 58 68 87 111 277 85 187 143 247 215 150 176 130 333 161 136
-9999 -9999 -9999 -9999 -9999 -9999 -9999 -9999 -9999 -9999 -9999 -9999 -9999 -9999 -9999 -9999 -9999 -9999 -9999 -9999 -9999 -9999 -9999 -9999 -9999 -9999 -9999 -9999 -9999 -9999 -9999 -9999 -9999 -9999 -9999 -9999 -9999 -9999 -9999 -9999 -9999 -9999 -9999 -9999 -9999 19 49 84 110 135 379 494 600 903 1095 1198 1574 1684 1383 1264 1192 1153 902 1215 1133 963 894 581 553 601 782 634 483 436 277 245 326 431 140 131 146 152 173 170 158 157 134 131 106 93 77 57 49 46 60 45 42 39 38 33 32 32 29 26 25 24 23 21 20 21 21 22 24 26 24 25 29 26 30 25 32 32 37 34 36 33 40 37 38 41 40 44 49 57 54 61 78 91 272 194 97 102 184 223 269 258 211 213 315 125 100
-9999 -9999 -9999 -9999 -9999 -9999 -9999 -9999 -9999 -9999 -9999 -9999 -9999 -9999 -9999 -9999 -9999 -9999 -9999 -9999 -9999 -9999 -9999 -9999 -9999 -9999 -9999 -9999 -9999 -9999 -9999 -9999 -9999 -9999 -9999 -9999 -9999 -9999 -9999 -9999 18 -9999 -9999 -9999 18 32 61 39 155 169 334 459 559 944 917 844 1299 1515 1661 1480 1580 1253 858 999 1260 1196 657 481 766 700 851 580 381 477 346 445 207 280 215 191 183 190 152 128 162 156 186 177 110 76 89 71 59 47 48 49 44 44 38 39 35 33 30 29 26 21 20 19 23 21 21 22 25 24 23 23 27 27 29 29 30 31 32 33 34 37 36 35 38 41 42 48 57 57 65 63 82 109 248 217 130 127 213 245 430 473 390 310 164 267 102
-9999 -9999 -9999 -9999 -9999 -9999 -9999 -9999 -9999 -9999 -9999 -9999 -9999 -9999 -9999 -9999 -9999 -9999 -9999 -9999 -9999 -9999 -9999 -9999 -9999 -9999 -9999 -9999 -9999 -9999 -9999 -9999 -9999 -9999 -9999 -9999 -9999 -9999 -9999 -9999 32 4 -9999 -9999 9 7 28 82 110 139 163 282 279 336 708 1020 1255 1494 1743 1836 1395 1298 1370 1449 1036 970 684 652 946 760 724 748 726 655 459 417 398 242 161 173 173 165 118 111 117 185 157 182 96 71 95 80 51 56 54 51 45 44 39 39 36 37 31 28 24 22 22 20 20 22 21 24 22 20 25 26 25 26 27 29 28 30 30 35 27 36 37 36 36 37 43 49 63 63 68 79 80 128 212 193 228 314 360 379 522 574 331 294 209 259 105
-9999 -9999 -9999 -9999 -9999 -9999 -9999 -9999 -9999 -9999 -9999 -9999 -9999 -9999 -9999 -9999 -9999 -9999 -9999 -9999 -9999 -9999 -9999 -9999 -9999 -9999 -9999 -9999 -9999 -9999 -9999 -9999 -9999 -9999 -9999 -9999 -9999 -9999 -9999 -9999 12 36 20 28 64 85 52 69 101 125 295 338 446 584 634 708 1138 1467 1656 1547 1703 1403 1432 1330 1185 795 554 682 996 944 877 942 653 662 421 400 317 206 225 152 166 118 118 102 108 103 100 100 99 99 90 77 56 58 48 57 47 47 43 35 35 35 29 28 24 23 19 19 23 21 20 20 21 23 23 24 24 26 28 26 30 30 34 30 34 36 34 31 38 38 43 48 67 65 80 83 79 130 213 193 263 320 407 373 468 555 445 285 394 418 245
-9999 -9999 -9999 -9999 -9999 -9999 -9999 -9999 -9999 -9999 -9999 -9999 -9999 -9999 -9999 -9999 -9999 -9999 -9999 -9999 -9999 -9999 -9999 -9999 -9999 -9999 -9999 -9999 -9999 -9999 -9999 -9999 -9999 -9999 -9999 -9999 -9999 -9999 -9999 -9999 -9999 13 9 14 16 15 47 45 122 78 375 405 703 778 863 1169 951 1254 1053 1185 1534 1585 1564 1295 875 1027 912 912 789 783 698 537 711 683 410 350 341 258 147 132 177 110 97 93 89 87 92 90 113 97 71 73 56 58 60 62 46 48 44 38 34 30 25 29 24 22 19 17 19 18 19 21 18 23 22 23 25 23 24 27 29 33 32 26 32 29 32 33 37 40 47 49 66 65 82 92 79 115 223 262 296 359 403 405 456 496 411 371 482 575 292
-9999 -9999 -9999 -9999 -9999 -9999 -9999 -9999 -9999 -9999 -9999 -9999 -9999 -9999 -9999 -9999 -9999 -9999 -9999 -9999 -9999 -9999 -9999 -9999 -9999 -9999 -9999 -9999 -9999 -9999 -9999 -9999 -9999 -9999 -9999 -9999 -9999 -9999 -9999 -9999 8 9 12 15 45 59 29 78 112 102 324 520 588 563 849 843 913 888 788 1202 1567 1774 1471 1312 1231 1212 1013 854 660 696 628 664 446 513 425 303 253 133 230 141 122 114 122 184 180 89 79 83 69 68 68 60 77 62 80 68 54 48 43 39 36 32 27 26 24 25 19 18 18 20 17 19 21 20 19 23 22 27 28 26 26 29 24 32 27 29 31 35 36 42 49 54 55 60 87 90 98 106 203 293 256 299 376 409 564 478 367 396 570 751 401
-9999 -9999 -9999 -9999 -9999 -9999 -9999 -9999 -9999 -9999 -9999 -9999 -9999 -9999 -9999 -9999 -9999 -9999 -9999 -9999 -9999 -9999 -9999 -9999 -9999 -9999 -9999 -9999 -9999 -9999 -9999 -9999 -9999 -9999 -9999 -9999 -9999 -9999 -9999 -9999 9 15 43 29 19 40 70 76 97 109 137 149 321 439 499 596 926 1033 1357 1305 1430 1196 1419 1156 764 590 552 716 628 570 796 657 397 387 434 490 161 171 285 151 292 120 224 277 166 117 91 75 70 101 67 85 65 64 61 74 55 54 46 42 39 31 29 27 24 22 20 17 19 19 18 18 19 18 22 21 26 25 23 22 28 27 26 22 27 28 31 35 39 41 46 48 58 76 81 76 102 119 138 163 222 341 361 438 544 538 519 515 626 639 350
-9999 -9999 -9999 -9999 -9999 -9999 -9999 -9999 -9999 -9999 -9999 -9999 -9999 -9999 -9999 -9999 -9999 -9999 -9999 -9999 -9999 -9999 -9999 -9999 -9999 -9999 -9999 -9999 -9999 -9999 -9999 -9999 -9999 -9999 -9999 -9999 -9999 -9999 -9999 -9999 7 22 12 9 25 30 56 67 88 86 246 341 515 691 776 953 1032 1037 952 938 1065 923 1355 1144 946 683 510 829 419 324 618 488 483 496 390 359 165 161 371 363 185 276 298 214 207 252 98 94 118 128 105 100 67 65 61 63 56 52 48 42 37 35 25 25 22 21 22 20 16 20 22 19 20 21 21 20 23 22 21 21 25 26 32 24 30 29 31 36 39 42 47 48 52 68 59 65 89 131 147 219 188 199 251 393 541 658 752 607 488 390 509
-9999 -9999 -9999 -9999 -9999 -9999 -9999 -9999 -9999 -9999 -9999 -9999 -9999 -9999 -9999 -9999 -9999 -9999 -9999 -9999 -9999 -9999 -9999 -9999 -9999 -9999 -9999 -9999 -9999 -9999 -9999 -9999 -9999 -9999 -9999 -9999 -9999 -9999 -9999 -9999 6 3 7 11 30 31 42 34 62 71 199 269 454 493 755 659 579 506 638 774 1162 1181 1261 1223 796 978 692 699 661 476 457 400 333 320 210 274 229 172 400 442 264 344 313 267 204 167 102 110 114 109 83 94 71 70 63 59 55 59 42 38 33 34 31 25 23 21 18 20 16 18 18 18 16 18 18 19 20 19 22 22 25 27 25 22 30 28 32 32 40 42 51 51 53 53 59 70 100 116 200 189 222 184 273 274 580 638 618 772 487 341 549
-9999 -9999 -9999 -9999 -9999 -9999 -9999 -9999 -9999 -9999 -9999 -9999 -9999 -9999 -9999 -9999 -9999 -9999 -9999 -9999 -9999 -9999 -9999 -9999 -9999 -9999 -9999 -9999 -9999 -9999 -9999 -9999 -9999 -9999 -9999 -9999 -9999 -9999 -9999 -9999 -9999 -9999 6 13 8 13 23 29 60 42 155 121 268 324 567 488 358 469 1145 1122 967 1336 1479 1246 958 904 896 759 852 662 332 388 266 382 232 269 263 273 381 505 467 376 283 243 173 167 102 104 91 90 85 78 75 70 65 60 56 51 54 45 33 30 27 26 24 22 17 18 17 16 17 15 20 18 19 18 20 20 22 23 24 26 25 21 29 28 30 32 41 42 48 51 68 61 80 70 78 88 195 267 252 214 224 299 401 458 552 531 603 517 502
-9999 -9999 -9999 -9999 -9999 -9999 -9999 -9999 -9999 -9999 -9999 -9999 -9999 -9999 -9999 -9999 -9999 -9999 -9999 -9999 -9999 -9999 -9999 -9999 -9999 -9999 -9999 -9999 -9999 -9999 -9999 -9999 -9999 -9999 -9999 -9999 -9999 -9999 -9999 -9999 -9999 -9999 -9999 10 5 11 50 35 76 86 76 151 511 501 426 420 412 599 742 792 863 1181 1102 1248 1237 974 922 884 841 703 319 458 307 463 279 383 228 305 448 573 435 417 261 257 184 119 105 101 96 100 93 76 73 70 66 60 55 49 42 42 39 30 28 27 19 20 16 16 17 19 15 17 15 16 16 18 17 21 21 21 28 26 29 26 28 27 32 33 39 44 49 49 65 69 85 77 81 99 154 173 239 277 250 320 575 667 432 516 762 555 577
-9999 -9999 -9999 -9999 -9999 -9999 -9999 -9999 -9999 -9999 -9999 -9999 -9999 -9999 -9999 -9999 -9999 -9999 -9999 -9999 -9999 -9999 -9999 -9999 -9999 -9999 -9999 -9999 -9999 -9999 -9999 -9999 -9999 -9999 -9999 -9999 -9999 -9999 -9999 -9999 -9999 -9999 -9999 -9999 15 10 47 17 66 68 135 184 645 578 453 326 783 992 1015 925 1117 1200 1118 852 722 611 953 882 1076 896 578 669 466 581 576 542 391 285 651 572 441 363 287 290 121 115 109 105 108 119 110 83 71 69 62 59 53 50 44 41 36 34 29 26 25 21 18 17 16 16 16 16 18 14 15 15 18 20 21 22 21 26 29 27 25 27 30 33 38 40 53 52 61 54 80 65 90 106 124 145 230 244 302 282 382 400 437 462 880 496 643
-9999 -9999 -9999 -9999 -9999 -9999 -9999 -9999 -9999 -9999 -9999 -9999 -9999 -9999 -9999 -9999 -9999 -9999 -9999 -9999 -9999 -9999 -9999 -9999 -9999 -9999 -9999 -9999 -9999 -9999 -9999 -9999 -9999 -9999 -9999 -9999 -9999 -9999 -9999 -9999 -9999 -9999 -9999 -9999 -9999 16 43 32 17 20 66 45 96 311 226 320 942 1144 1302 1236 1488 1558 1385 937 603 455 668 684 925 852 734 816 724 584 445 480 272 305 595 503 222 188 131 123 128 130 113 104 113 115 81 70 68 63 57 55 54 49 51 47 31 35 28 27 21 20 18 17 10 18 14 12 15 15 17 17 17 24 20 22 24 24 28 25 28 29 33 33 36 42 43 45 50 62 61 59 65 74 144 151 208 228 203 212 246 298 676 490 775 492 615
-9999 -9999 -9999 -9999 -9999 -9999 -9999 -9999 -9999 -9999 -9999 -9999 -9999 -9999 -9999 -9999 -9999 -9999 -9999 -9999 -9999 -9999 -9999 -9999 -9999 -9999 -9999 -9999 -9999 -9999 -9999 -9999 -9999 -9999 -9999 -9999 -9999 -9999 -9999 -9999 -9999 -9999 -9999 -9999 -9999 -9999 33 24 18 16 35 84 349 432 267 437 830 738 547 918 708 850 1432 1146 669 458 492 640 457 795 718 598 730 720 466 458 284 229 525 558 233 253 155 183 134 128 110 106 107 97 77 72 66 62 54 52 46 49 43 39 35 33 32 27 23 20 19 15 16 16 15 13 12 13 16 17 19 22 19 19 22 28 28 24 27 31 31 36 37 37 37 46 54 50 53 60 91 84 89 118 152 211 185 178 159 305 328 371 720 549 637
-9999 -9999 -9999 -9999 -9999 -9999 -9999 -9999 -9999 -9999 -9999 -9999 -9999 -9999 -9999 -9999 -9999 -9999 -9999 -9999 -9999 -9999 -9999 -9999 -9999 -9999 -9999 -9999 -9999 -9999 -9999 -9999 -9999 -9999 -9999 -9999 -9999 -9999 -9999 -9999 -9999 -9999 -9999 -9999 -9999 -9999 8 7 14 15 31 63 141 99 485 352 500 676 500 588 528 878 1171 1129 1049 626 603 453 422 581 611 453 623 705 526 393 348 286 297 373 320 329 151 143 133 131 128 148 108 80 68 74 57 57 52 52 47 45 44 39 36 35 29 26 21 20 19 18 18 17 14 13 13 13 13 18 18 22 20 19 27 21 27 23 26 26 32 37 40 42 46 47 50 41 46 59 72 85 92 111 242 230 220 212 262 444 487 570 532 639 645
-9999 -9999 -9999 -9999 -9999 -9999 -9999 -9999 -9999 -9999 -9999 -9999 -9999 -9999 -9999 -9999 -9999 -9999 -9999 -9999 -9999 -9999 -9999 -9999 -9999 -9999 -9999 -9999 -9999 -9999 -9999 -9999 -9999 -9999 -9999 -9999 -9999 -9999 -9999 -9999 -9999 -9999 -9999 -9999 -9999 -9999 10 9 11 10 12 15 86 130 256 296 263 147 337 472 517 519 788 792 618 418 515 521 347 485 414 412 506 499 356 393 284 305 364 429 272 166 156 155 129 190 137 139 91 85 84 75 54 52 48 49 47 43 41 39 35 34 29 27 25 24 18 20 17 16 17 12 13 13 14 16 15 20 17 20 23 25 27 23 25 24 26 31 47 53 43 41 47 63 68 68 56 95 115 135 216 193 212 282 157 291 420 476 552 770 733
-9999 -9999 -9999 -9999 -9999 -9999 -9999 -9999 -9999 -9999 -9999 -9999 -9999 -9999 -9999 -9999 -9999 -9999 -9999 -9999 -9999 -9999 -9999 -9999 -9999 -9999 -9999 -9999 -9999 -9999 -9999 -9999 -9999 -9999 -9999 -9999 -9999 -9999 -9999 -9999 -9999 -9999 -9999 -9999 -9999 -9999 5 14 8 11 17 19 79 85 135 124 133 376 385 242 441 610 617 792 189 162 304 328 234 340 345 485 389 338 326 356 603 463 242 188 186 184 180 158 280 147 252 218 98 109 73 93 56 64 60 51 52 47 42 36 38 36 30 28 23 23 20 18 14 16 14 14 13 13 14 18 17 19 23 19 23 22 23 23 24 25 26 31 39 45 50 69 60 51 71 78 64 57 164 93 157 165 205 269 431 174 346 263 543 555 709
-9999 -9999 -9999 -9999 -9999 -9999 -9999 -9999 -9999 -9999 -9999 -9999 -9999 -9999 -9999 -9999 -9999 -9999 -9999 -9999 -9999 -9999 -9999 -9999 -9999 -9999 -9999 -9999 -9999 -9999 -9999 -9999 -9999 -9999 -9999 -9999 -9999 -9999 -9999 -9999 -9999 -9999 -9999 -9999 -9999 -9999 -9999 10 11 9 12 14 22 28 56 50 247 90 117 308 339 176 200 486 192 342 263 232 206 219 455 609 395 390 410 300 597 380 330 263 198 182 219 156 191 163 169 148 99 125 78 84 73 67 58 56 54 56 43 41 40 38 33 30 22 22 19 18 16 14 15 16 13 13 13 14 18 22 14 13 20 21 21 24 24 21 25 30 30 35 49 58 65 64 68 95 83 68 67 156 230 214 235 232 354 395 384 255 462 711 726
-9999 -9999 -9999 -9999 -9999 -9999 -9999 -9999 -9999 -9999 -9999 -9999 -9999 -9999 -9999 -9999 -9999 -9999 -9999 -9999 -9999 -9999 -9999 -9999 -9999 -9999 -9999 -9999 -9999 -9999 -9999 -9999 -9999 -9999 -9999 -9999 -9999 -9999 -9999 -9999 -9999 -9999 -9999 -9999 -9999 -9999 -9999 -9999 18 13 16 18 22 29 29 34 36 92 222 154 262 108 97 287 117 141 153 222 341 275 279 428 512 381 320 414 589 267 268 239 230 389 264 239 193 260 343 152 146 131 91 142 95 70 61 63 55 51 44 46 40 38 30 29 28 23 22 18 14 14 15 12 13 15 14 13 21 21 23 21 17 17 20 23 22 22 27 29 37 45 45 56 58 79 87 93 133 111 162 134 168 104 201 254 323 388 311 331 482 621 544
-9999 -9999 -9999 -9999 -9999 -9999 -9999 -9999 -9999 -9999 -9999 -9999 -9999 -9999 -9999 -9999 -9999 -9999 -9999 -9999 -9999 -9999 -9999 -9999 -9999 -9999 -9999 -9999 -9999 -9999 -9999 -9999 -9999 -9999 -9999 -9999 -9999 -9999 -9999 -9999 -9999 -9999 -9999 -9999 -9999 -9999 -9999 -9999 -9999 11 12 14 17 24 25 34 38 46 51 98 175 147 79 78 121 180 249 281 440 491 351 463 500 348 320 464 564 289 262 354 223 359 265 242 213 300 215 217 212 125 118 181 82 72 71 69 62 59 48 48 39 38 37 30 25 22 22 17 19 12 15 11 13 13 13 13 12 16 20 17 16 18 17 18 23 21 23 25 35 36 66 65 74 70 98 94 139 135 87 113 166 174 268 232 391 468 227 304 456 612 543
-9999 -9999 -9999 -9999 -9999 -9999 -9999 -9999 -9999 -9999 -9999 -9999 -9999 -9999 -9999 -9999 -9999 -9999 -9999 -9999 -9999 -9999 -9999 -9999 -9999 -9999 -9999 -9999 -9999 -9999 -9999 -9999 -9999 -9999 -9999 -9999 -9999 -9999 -9999 -9999 -9999 -9999 -9999 -9999 -9999 -9999 -9999 -9999 -9999 7 9 12 15 22 28 38 35 49 53 60 69 79 83 83 88 204 325 349 199 273 342 295 298 492 403 346 414 322 287 490 373 385 328 311 303 251 345 280 213 127 195 83 77 79 78 71 63 59 51 43 39 40 32 30 25 22 17 20 14 15 14 13 13 13 15 15 17 18 22 15 16 16 17 18 18 19 21 22 34 36 45 55 61 58 68 71 113 188 146 150 218 260 204 275 377 454 530 280 487 548 378
-9999 -9999 -9999 -9999 -9999 -9999 -9999 -9999 -9999 -9999 -9999 -9999 -9999 -9999 -9999 -9999 -9999 -9999 -9999 -9999 -9999 -9999 -9999 -9999 -9999 -9999 -9999 -9999 -9999 -9999 -9999 -9999 -9999 -9999 -9999 -9999 -9999 -9999 -9999 -9999 -9999 -9999 -9999 -9999 -9999 -9999 -9999 -9999 -9999 28 154 215 78 199 473 287 433 95 57 66 72 80 91 101 169 233 234 212 191 252 315 302 300 433 388 420 431 313 305 438 388 393 284 419 363 412 381 210 228 112 101 92 93 92 90 76 74 59 52 43 39 36 32 27 26 22 18 16 19 11 14 10 12 14 12 16 17 19 15 15 15 14 17 16 19 18 21 26 29 34 41 52 42 56 62 76 136 129 137 162 255 254 148 201 339 517 569 380 325 442 439
-9999 -9999 -9999 -9999 -9999 -9999 -9999 -9999 -9999 -9999 -9999 -9999 -9999 -9999 -9999 -9999 -9999 -9999 -9999 -9999 -9999 -9999 -9999 -9999 -9999 -9999 -9999 -9999 -9999 -9999 -9999 -9999 -9999 -9999 -9999 -9999 -9999 -9999 -9999 -9999 -9999 -9999 -9999 -9999 -9999 -9999 -9999 -9999 -9999 65 148 387 167 321 655 611 399 374 92 73 79 100 108 108 117 138 165 205 231 269 286 309 356 425 534 639 527 360 450 365 416 414 336 467 441 444 394 315 272 124 106 94 135 96 91 76 69 58 55 48 44 36 29 30 22 22 18 15 14 12 12 11 10 13 14 19 20 11 15 14 15 14 16 17 14 17 18 25 30 28 38 36 40 52 55 104 167 193 109 157 236 174 338 254 251 355 548 536 450 276 460
-9999 -9999 -9999 -9999 -9999 -9999 -9999 -9999 -9999 -9999 -9999 -9999 -9999 -9999 -9999 -9999 -9999 -9999 -9999 -9999 -9999 -9999 -9999 -9999 -9999 -9999 -9999 -9999 -9999 -9999 -9999 -9999 -9999 -9999 -9999 -9999 -9999 -9999 -9999 -9999 -9999 -9999 -9999 -9999 -9999 -9999 -9999 -9999 -9999 10 42 112 306 255 301 457 580 267 150 221 83 100 114 129 138 163 174 209 237 246 292 352 400 432 497 669 491 385 653 490 604 533 506 316 203 173 191 226 198 161 106 142 122 108 94 83 77 67 62 49 43 37 33 26 37 44 68 124 122 13 13 12 12 14 14 16 13 13 15 14 12 13 13 15 17 21 21 28 24 32 31 34 38 61 58 78 125 86 106 202 201 216 355 371 305 328 591 553 387 407 344
-9999 -9999 -9999 -9999 -9999 -9999 -9999 -9999 -9999 -9999 -9999 -9999 -9999 -9999 -9999 -9999 -9999 -9999 -9999 -9999 -9999 -9999 -9999 -9999 -9999 -9999 -9999 -9999 -9999 -9999 -9999 -9999 -9999 -9999 -9999 -9999 -9999 -9999 -9999 -9999 -9999 -9999 -9999 -9999 -9999 -9999 -9999 -9999 -9999 6 12 38 184 111 148 370 293 638 752 546 319 481 109 135 144 164 173 212 236 285 318 435 455 543 580 619 518 435 746 551 629 606 478 328 383 353 265 227 200 198 155 132 130 107 102 89 81 70 64 51 48 38 34 33 56 119 184 252 208 45 12 15 13 12 18 11 14 10 11 13 12 12 13 16 16 20 21 24 26 40 48 52 52 56 51 104 100 189 243 207 213 518 467 242 246 353 474 486 360 266 394
-9999 -9999 -9999 -9999 -9999 -9999 -9999 -9999 -9999 -9999 -9999 -9999 -9999 -9999 -9999 -9999 -9999 -9999 -9999 -9999 -9999 -9999 -9999 -9999 -9999 -9999 -9999 -9999 -9999 -9999 -9999 -9999 -9999 -9999 -9999 -9999 -9999 -9999 -9999 -9999 -9999 -9999 -9999 -9999 -9999 -9999 -9999 -9999 -9999 -9999 11 118 132 50 88 192 259 380 690 652 600 356 136 216 227 180 199 263 270 292 373 457 501 563 591 670 614 772 631 732 621 439 378 385 373 318 347 231 199 176 175 150 135 114 110 94 84 72 64 55 45 42 36 45 75 211 312 602 406 106 24 14 16 15 13 10 10 8 11 10 10 12 12 13 14 19 19 22 29 41 49 50 64 57 77 93 130 188 227 292 313 589 608 390 303 380 439 459 497 453 703
-9999 -9999 -9999 -9999 -9999 -9999 -9999 -9999 -9999 -9999 -9999 -9999 -9999 -9999 -9999 -9999 -9999 -9999 -9999 -9999 -9999 -9999 -9999 -9999 -9999 -9999 -9999 -9999 -9999 -9999 -9999 -9999 -9999 -9999 -9999 -9999 -9999 -9999 -9999 -9999 -9999 -9999 -9999 -9999 -9999 -9999 -9999 -9999 -9999 -9999 -9999 13 11 18 43 373 268 341 440 767 553 426 375 368 259 226 197 273 292 360 416 558 497 629 610 695 841 838 687 888 665 441 384 467 408 453 393 217 222 189 176 152 140 119 111 98 85 71 65 54 48 41 41 35 61 255 548 966 634 155 44 10 13 10 8 11 10 11 9 9 9 9 12 13 16 21 18 29 30 30 36 55 61 64 84 83 102 178 125 213 245 523 704 394 174 403 324 280 248 457 547
-9999 -9999 -9999 -9999 -9999 -9999 -9999 -9999 -9999 -9999 -9999 -9999 -9999 -9999 -9999 -9999 -9999 -9999 -9999 -9999 -9999 -9999 -9999 -9999 -9999 -9999 -9999 -9999 -9999 -9999 -9999 -9999 -9999 -9999 -9999 -9999 -9999 -9999 -9999 -9999 -9999 -9999 -9999 -9999 -9999 -9999 -9999 -9999 -9999 -9999 -9999 11 64 127 193 131 503 461 638 1004 950 783 595 500 515 350 207 246 293 374 441 565 604 658 759 793 828 810 1017 682 723 530 595 558 634 493 270 300 234 213 194 162 151 128 118 99 93 75 72 61 49 43 40 33 81 211 400 646 402 98 19 12 10 9 8 8 10 9 6 9 8 9 10 13 15 21 17 22 30 32 45 54 61 59 64 69 71 142 168 281 422 421 672 404 428 244 299 335 428 356 474
-9999 -9999 -9999 -9999 -9999 -9999 -9999 -9999 -9999 -9999 -9999 -9999 -9999 -9999 -9999 -9999 -9999 -9999 -9999 -9999 -9999 -9999 -9999 -9999 -9999 -9999 -9999 -9999 -9999 -9999 -9999 -9999 -9999 -9999 -9999 -9999 -9999 -9999 -9999 -9999 -9999 -9999 -9999 -9999 -9999 -9999 -9999 -9999 -9999 -9999 -9999 12 13 27 35 61 259 403 372 449 594 1274 1274 530 229 267 215 270 300 393 461 541 608 674 731 867 992 828 925 860 726 655 823 634 540 382 344 279 247 210 198 162 153 126 114 98 89 76 67 56 51 45 41 35 26 107 126 123 85 15 9 11 9 7 9 10 10 10 10 8 7 10 14 14 14 20 23 34 31 39 48 51 65 36 45 102 218 163 124 244 240 558 727 562 308 221 383 549 731 583 550
-9999 -9999 -9999 -9999 -9999 -9999 -9999 -9999 -9999 -9999 -9999 -9999 -9999 -9999 -9999 -9999 -9999 -9999 -9999 -9999 -9999 -9999 -9999 -9999 -9999 -9999 -9999 -9999 -9999 -9999 -9999 -9999 -9999 -9999 -9999 -9999 -9999 -9999 -9999 -9999 -9999 -9999 -9999 -9999 -9999 -9999 -9999 -9999 -9999 -9999 -9999 8 10 13 78 57 161 392 520 764 784 1046 863 335 257 375 220 282 309 401 475 563 649 766 867 1096 971 1133 1312 959 1026 678 598 551 502 436 399 301 281 218 200 158 141 123 117 95 91 71 64 53 50 39 38 32 25 21 32 18 11 9 10 15 10 11 11 6 11 10 9 11 7 12 12 12 14 20 18 22 23 32 27 33 34 69 88 128 131 171 143 290 212 446 719 491 499 566 329 376 552 796 927
-9999 -9999 -9999 -9999 -9999 -9999 -9999 -9999 -9999 -9999 -9999 -9999 -9999 -9999 -9999 -9999 -9999 -9999 -9999 -9999 -9999 -9999 -9999 -9999 -9999 -9999 -9999 -9999 -9999 -9999 -9999 -9999 -9999 -9999 -9999 -9999 -9999 -9999 -9999 -9999 -9999 -9999 -9999 -9999 -9999 -9999 -9999 -9999 -9999 -9999 -9999 9 17 97 54 136 169 311 483 498 551 762 842 409 469 421 250 286 322 438 448 585 647 781 917 951 926 985 905 761 763 547 639 532 517 421 374 270 258 220 188 151 144 120 110 95 89 70 62 52 48 39 34 27 26 19 16 9 9 13 15 9 11 14 10 7 9 10 9 8 11 9 11 16 14 17 21 22 22 28 21 36 47 99 127 133 128 147 157 432 240 322 575 620 547 530 390 461 450 520 696
-9999 -9999 -9999 -9999 -9999 -9999 -9999 -9999 -9999 -9999 -9999 -9999 -9999 -9999 -9999 -9999 -9999 -9999 -9999 -9999 -9999 -9999 -9999 -9999 -9999 -9999 -9999 -9999 -9999 -9999 -9999 -9999 -9999 -9999 -9999 -9999 -9999 -9999 -9999 -9999 -9999 -9999 -9999 -9999 -9999 -9999 -9999 -9999 -9999 -9999 -9999 6 12 38 24 363 186 299 369 282 496 916 600 598 375 303 251 298 368 384 486 619 666 762 942 1282 1326 1050 976 756 1001 717 744 626 382 326 323 305 229 210 186 158 141 121 110 93 80 71 63 53 45 33 31 26 22 20 17 12 11 12 13 11 13 10 10 5 9 9 8 10 12 10 11 17 16 21 21 28 35 26 35 33 48 85 145 229 195 171 179 421 482 444 521 546 610 647 555 501 599 504 383
-9999 -9999 -9999 -9999 -9999 -9999 -9999 -9999 -9999 -9999 -9999 -9999 -9999 -9999 -9999 -9999 -9999 -9999 -9999 -9999 -9999 -9999 -9999 -9999 -9999 -9999 -9999 -9999 -9999 -9999 -9999 -9999 -9999 -9999 -9999 -9999 -9999 -9999 -9999 -9999 -9999 -9999 -9999 -9999 -9999 -9999 -9999 -9999 -9999 -9999 -9999 -9999 8 9 10 16 32 237 236 538 552 543 563 326 338 303 269 289 341 437 464 613 625 834 752 973 1053 1158 1026 955 1072 792 690 614 619 522 349 238 233 202 163 150 135 107 97 85 78 66 62 49 43 38 32 26 23 16 14 10 7 8 7 12 10 8 7 7 6 9 8 10 10 9 11 16 17 15 22 40 44 43 42 35 37 120 130 326 219 201 208 257 503 377 656 729 576 617 486 493 553 402 579
-9999 -9999 -9999 -9999 -9999 -9999 -9999 -9999 -9999 -9999 -9999 -9999 -9999 -9999 -9999 -9999 -9999 -9999 -9999 -9999 -9999 -9999 -9999 -9999 -9999 -9999 -9999 -9999 -9999 -9999 -9999 -9999 -9999 -9999 -9999 -9999 -9999 -9999 -9999 -9999 -9999 -9999 -9999 -9999 -9999 -9999 -9999 -9999 -9999 -9999 -9999 -9999 6 10 28 17 16 34 144 220 268 216 86 296 250 276 338 330 360 409 419 559 625 791 696 766 812 1094 834 910 1058 942 581 565 409 430 346 183 182 187 171 137 122 102 92 79 73 63 56 50 49 37 31 20 18 17 13 10 6 8 8 7 6 11 7 8 6 7 7 8 10 12 12 13 14 16 19 20 38 40 43 60 58 57 139 357 148 242 257 550 576 516 603 543 554 378 362 456 673 547 532
-9999 -9999 -9999 -9999 -9999 -9999 -9999 -9999 -9999 -9999 -9999 -9999 -9999 -9999 -9999 -9999 -9999 -9999 -9999 -9999 -9999 -9999 -9999 -9999 -9999 -9999 -9999 -9999 -9999 -9999 -9999 -9999 -9999 -9999 -9999 -9999 -9999 -9999 -9999 -9999 -9999 -9999 -9999 -9999 -9999 -9999 -9999 -9999 -9999 -9999 -9999 -9999 12 63 199 84 21 24 26 49 201 95 67 90 118 159 294 352 418 397 445 535 475 615 681 730 1151 1427 985 601 779 752 843 480 482 419 400 266 207 112 141 129 118 94 84 62 61 57 53 48 41 32 28 19 13 9 12 8 5 11 10 9 8 14 8 8 8 7 7 10 8 10 12 14 17 17 28 26 25 33 46 44 59 89 142 176 173 203 315 390 601 744 761 522 433 338 304 508 500 502 689
-9999 -9999 -9999 -9999 -9999 -9999 -9999 -9999 -9999 -9999 -9999 -9999 -9999 -9999 -9999 -9999 -9999 -9999 -9999 -9999 -9999 -9999 -9999 -9999 -9999 -9999 -9999 -9999 -9999 -9999 -9999 -9999 -9999 -9999 -9999 -9999 -9999 -9999 -9999 -9999 -9999 -9999 -9999 -9999 -9999 -9999 -9999 -9999 -9999 -9999 -9999 -9999 -9999 36 36 310 192 35 161 244 147 256 465 455 227 179 279 228 396 365 407 415 569 392 529 960 922 1437 890 571 544 451 781 491 421 424 302 254 225 136 99 109 110 95 76 64 60 52 48 42 39 32 26 16 18 10 10 7 6 13 11 5 9 7 15 6 7 9 8 9 9 10 11 17 21 32 32 26 25 30 37 77 59 100 162 167 178 279 268 444 645 591 624 626 674 617 291 279 536 700 786
-9999 -9999 -9999 -9999 -9999 -9999 -9999 -9999 -9999 -9999 -9999 -9999 -9999 -9999 -9999 -9999 -9999 -9999 -9999 -9999 -9999 -9999 -9999 -9999 -9999 -9999 -9999 -9999 -9999 -9999 -9999 -9999 -9999 -9999 -9999 -9999 -9999 -9999 -9999 -9999 -9999 -9999 -9999 -9999 -9999 -9999 -9999 -9999 -9999 -9999 -9999 -9999 -9999 39 15 93 166 41 40 149 153 276 536 609 326 164 151 202 250 298 349 322 473 733 764 754 1065 804 630 493 447 282 239 572 408 217 303 272 134 88 106 75 88 84 78 62 52 44 37 39 31 24 23 11 11 9 8 6 7 7 14 9 8 9 9 9 12 9 7 10 11 11 9 20 18 34 34 30 30 50 41 77 84 79 140 150 198 319 321 312 581 554 558 529 653 451 299 655 482 480 421
-9999 -9999 -9999 -9999 -9999 -9999 -9999 -9999 -9999 -9999 -9999 -9999 -9999 -9999 -9999 -9999 -9999 -9999 -9999 -9999 -9999 -9999 -9999 -9999 -9999 -9999 -9999 -9999 -9999 -9999 -9999 -9999 -9999 -9999 -9999 -9999 -9999 -9999 -9999 -9999 -9999 -9999 -9999 -9999 -9999 -9999 -9999 -9999 -9999 -9999 -9999 -9999 -9999 13 9 15 15 27 143 142 246 333 266 330 351 431 386 211 221 278 296 288 538 784 952 907 1050 868 739 729 676 360 293 476 394 255 128 114 186 104 74 82 78 69 67 54 50 40 38 32 30 28 17 10 11 9 8 7 6 7 9 9 8 8 10 10 10 8 8 10 11 16 17 18 16 28 38 37 36 37 63 66 100 105 173 258 436 449 318 492 554 490 657 601 699 316 222 363 474 325 378
-9999 -9999 -9999 -9999 -9999 -9999 -9999 -9999 -9999 -9999 -9999 -9999 -9999 -9999 -9999 -9999 -9999 -9999 -9999 -9999 -9999 -9999 -9999 -9999 -9999 -9999 -9999 -9999 -9999 -9999 -9999 -9999 -9999 -9999 -9999 -9999 -9999 -9999 -9999 -9999 -9999 -9999 -9999 -9999 -9999 -9999 -9999 -9999 -9999 -9999 -9999 -9999 -9999 15 10 12 13 21 18 166 232 501 256 544 440 426 331 169 201 240 250 239 407 375 517 1001 1028 529 479 306 431 628 252 164 338 231 161 109 70 68 66 64 63 55 51 40 43 35 31 32 26 21 15 10 7 10 5 5 6 10 11 10 10 10 7 7 9 11 8 11 13 15 19 19 16 23 39 48 56 54 64 68 106 111 160 234 346 324 386 669 607 591 436 391 582 476 384 476 340 601 502
-9999 -9999 -9999 -9999 -9999 -9999 -9999 -9999 -9999 -9999 -9999 -9999 -9999 -9999 -9999 -9999 -9999 -9999 -9999 -9999 -9999 -9999 -9999 -9999 -9999 -9999 -9999 -9999 -9999 -9999 -9999 -9999 -9999 -9999 -9999 -9999 -9999 -9999 -9999 -9999 -9999 -9999 -9999 -9999 -9999 -9999 -9999 -9999 -9999 -9999 -9999 -9999 -9999 7 18 19 19 24 24 82 245 484 626 635 508 133 103 166 175 232 200 341 539 624 820 728 945 578 386 234 367 485 286 316 252 149 124 89 66 56 58 54 61 48 43 36 35 34 30 20 17 13 14 10 7 8 9 6 7 8 6 13 9 9 6 9 7 10 9 16 15 15 19 22 24 36 42 40 39 47 46 73 89 86 92 193 224 348 417 569 676 528 496 337 391 551 287 309 489 622 706
-9999 -9999 -9999 -9999 -9999 -9999 -9999 -9999 -9999 -9999 -9999 -9999 -9999 -9999 -9999 -9999 -9999 -9999 -9999 -9999 -9999 -9999 -9999 -9999 -9999 -9999 -9999 -9999 -9999 -9999 -9999 -9999 -9999 -9999 -9999 -9999 -9999 -9999 -9999 -9999 -9999 -9999 -9999 -9999 -9999 -9999 -9999 -9999 -9999 -9999 -9999 -9999 -9999 7 14 16 21 27 27 27 47 325 395 491 238 246 88 147 166 174 182 196 352 484 828 1024 832 547 455 572 478 195 181 192 216 143 98 68 51 35 41 41 41 46 38 25 33 30 27 20 13 11 11 9 7 7 5 9 8 6 7 9 8 10 12 10 8 11 12 12 11 13 23 26 24 29 30 36 32 47 63 79 76 104 119 215 239 353 362 600 430 476 392 273 231 448 410 517 519 704 784
-9999 -9999 -9999 -9999 -9999 -9999 -9999 -9999 -9999 -9999 -9999 -9999 -9999 -9999 -9999 -9999 -9999 -9999 -9999 -9999 -9999 -9999 -9999 -9999 -9999 -9999 -9999 -9999 -9999 -9999 -9999 -9999 -9999 -9999 -9999 -9999 -9999 -9999 -9999 -9999 -9999 -9999 -9999 -9999 -9999 -9999 -9999 -9999 -9999 -9999 -9999 -9999 -9999 13 17 18 20 23 27 37 38 281 245 362 144 89 98 132 153 159 169 160 201 352 468 885 716 636 447 477 498 359 276 186 136 68 84 67 43 34 33 36 29 32 29 27 17 16 16 17 16 11 11 7 9 6 6 4 5 4 8 5 9 9 8 11 12 12 16 5 13 20 19 24 24 29 28 34 49 58 71 87 88 112 159 200 221 366 486 444 384 494 344 213 260 331 310 313 445 767 712
-9999 -9999 -9999 -9999 -9999 -9999 -9999 -9999 -9999 -9999 -9999 -9999 -9999 -9999 -9999 -9999 -9999 -9999 -9999 -9999 -9999 -9999 -9999 -9999 -9999 -9999 -9999 -9999 -9999 -9999 -9999 -9999 -9999 -9999 -9999 -9999 -9999 -9999 -9999 -9999 -9999 -9999 -9999 -9999 -9999 -9999 -9999 -9999 -9999 -9999 -9999 -9999 -9999 9 14 16 26 26 33 34 40 49 54 67 72 85 94 114 129 137 135 129 129 222 460 641 674 673 685 513 454 250 217 110 60 53 50 52 41 38 31 30 28 25 22 24 15 10 12 14 12 11 9 5 7 4 6 5 8 5 12 4 7 5 8 9 10 15 14 15 13 14 17 34 36 41 37 34 39 52 72 58 66 151 167 204 194 331 443 418 279 514 666 397 219 221 361 490 395 548 614
-9999 -9999 -9999 -9999 -9999 -9999 -9999 -9999 -9999 -9999 -9999 -9999 -9999 -9999 -9999 -9999 -9999 -9999 -9999 -9999 -9999 -9999 -9999 -9999 -9999 -9999 -9999 -9999 -9999 -9999 -9999 -9999 -9999 -9999 -9999 -9999 -9999 -9999 -9999 -9999 -9999 -9999 -9999 -9999 -9999 -9999 -9999 -9999 -9999 -9999 -9999 -9999 -9999 8 13 22 22 29 33 39 43 50 57 67 78 84 95 112 134 137 129 129 148 353 378 494 550 858 828 501 359 194 227 107 54 66 55 47 42 27 27 24 23 17 16 12 6 7 11 7 9 10 9 5 3 7 7 12 9 6 13 10 8 7 9 7 13 13 14 13 16 16 16 32 29 43 47 47 57 63 49 66 72 95 153 183 233 334 340 353 257 361 394 220 219 222 370 258 456 475 553
-9999 -9999 -9999 -9999 -9999 -9999 -9999 -9999 -9999 -9999 -9999 -9999 -9999 -9999 -9999 -9999 -9999 -9999 -9999 -9999 -9999 -9999 -9999 -9999 -9999 -9999 -9999 -9999 -9999 -9999 -9999 -9999 -9999 -9999 -9999 -9999 -9999 -9999 -9999 -9999 -9999 -9999 -9999 -9999 -9999 -9999 -9999 -9999 -9999 -9999 -9999 -9999 -9999 9 12 19 22 23 30 37 43 49 58 66 74 78 257 245 472 371 275 162 129 129 253 334 371 605 572 457 330 224 210 72 40 43 40 47 38 26 25 20 19 16 17 8 7 4 6 4 6 8 9 7 5 5 6 4 6 6 6 10 7 5 7 9 11 14 16 11 17 21 27 24 28 49 50 57 65 66 74 63 91 93 92 118 199 316 335 439 370 312 377 252 269 360 480 422 519 420 639
-9999 -9999 -9999 -9999 -9999 -9999 -9999 -9999 -9999 -9999 -9999 -9999 -9999 -9999 -9999 -9999 -9999 -9999 -9999 -9999 -9999 -9999 -9999 -9999 -9999 -9999 -9999 -9999 -9999 -9999 -9999 -9999 -9999 -9999 -9999 -9999 -9999 -9999 -9999 -9999 -9999 -9999 -9999 -9999 -9999 -9999 -9999 -9999 -9999 -9999 -9999 -9999 5 6 13 14 20 25 27 35 41 45 61 59 64 73 106 134 339 453 433 340 172 192 296 600 538 521 402 436 300 96 87 66 37 33 33 36 30 19 20 21 18 11 14 8 6 4 4 5 8 6 7 7 6 4 5 6 5 4 11 7 6 9 10 13 14 13 17 18 18 21 22 28 27 38 43 45 35 45 63 59 67 73 123 183 195 180 325 312 318 321 494 219 296 540 349 416 439 397 369
-9999 -9999 -9999 -9999 -9999 -9999 -9999 -9999 -9999 -9999 -9999 -9999 -9999 -9999 -9999 -9999 -9999 -9999 -9999 -9999 -9999 -9999 -9999 -9999 -9999 -9999 -9999 -9999 -9999 -9999 -9999 -9999 -9999 -9999 -9999 -9999 -9999 -9999 -9999 -9999 -9999 -9999 -9999 -9999 -9999 -9999 -9999 -9999 -9999 -9999 -9999 -9999 5 9 16 17 21 24 25 34 44 42 55 59 61 63 66 198 277 341 724 363 334 411 471 639 589 458 299 317 188 155 158 117 35 29 29 27 23 18 18 18 18 16 12 5 5 1 3 -1 2 4 4 6 3 7 4 5 5 6 10 5 7 8 10 12 14 14 16 21 24 25 23 25 33 22 31 20 29 24 38 64 58 56 122 85 194 341 148 283 233 395 448 222 227 403 283 388 261 353 358
-9999 -9999 -9999 -9999 -9999 -9999 -9999 -9999 -9999 -9999 -9999 -9999 -9999 -9999 -9999 -9999 -9999 -9999 -9999 -9999 -9999 -9999 -9999 -9999 -9999 -9999 -9999 -9999 -9999 -9999 -9999 -9999 -9999 -9999 -9999 -9999 -9999 -9999 -9999 -9999 -9999 -9999 -9999 -9999 -9999 -9999 -9999 -9999 -9999 -9999 -9999 -9999 10 12 10 12 21 19 27 31 36 42 52 56 56 58 198 228 260 518 729 658 587 627 653 493 582 671 495 326 257 236 203 97 41 26 27 24 21 18 14 14 11 8 12 6 7 3 6 4 2 3 4 6 6 6 5 4 9 6 8 7 5 9 11 12 13 16 16 22 10 24 21 30 26 24 27 26 27 24 36 67 45 106 96 105 124 126 198 302 309 430 467 216 334 473 234 418 344 414 558
-9999 -9999 -9999 -9999 -9999 -9999 -9999 -9999 -9999 -9999 -9999 -9999 -9999 -9999 -9999 -9999 -9999 -9999 -9999 -9999 -9999 -9999 -9999 -9999 -9999 -9999 -9999 -9999 -9999 -9999 -9999 -9999 -9999 -9999 -9999 -9999 -9999 -9999 -9999 -9999 -9999 -9999 -9999 -9999 -9999 -9999 -9999 -9999 -9999 -9999 -9999 -9999 9 163 215 200 488 262 26 24 71 65 94 46 48 47 70 160 176 231 252 337 457 702 604 452 424 641 444 295 336 248 109 128 23 25 22 22 22 15 16 16 11 9 7 8 2 2 5 5 5 7 3 5 5 6 6 8 6 11 7 5 5 7 7 11 12 15 17 18 12 18 23 22 25 45 45 31 39 61 44 86 79 97 115 216 235 190 278 408 246 521 426 219 431 450 421 401 449 627 566
-9999 -9999 -9999 -9999 -9999 -9999 -9999 -9999 -9999 -9999 -9999 -9999 -9999 -9999 -9999 -9999 -9999 -9999 -9999 -9999 -9999 -9999 -9999 -9999 -9999 -9999 -9999 -9999 -9999 -9999 -9999 -9999 -9999 -9999 -9999 -9999 -9999 -9999 -9999 -9999 -9999 -9999 -9999 -9999 -9999 -9999 -9999 -9999 -9999 22 -9999 -9999 20 20 176 384 299 189 26 35 37 33 46 39 120 42 54 153 82 113 129 279 576 605 340 225 570 691 586 337 161 135 101 30 23 22 18 20 17 18 12 11 9 7 6 4 8 5 0 7 0 3 4 6 4 5 6 5 6 8 7 6 7 7 6 7 11 13 13 21 17 15 19 35 46 46 66 41 72 60 47 56 42 66 116 148 129 167 245 266 258 351 219 296 335 580 463 394 408 409 520
-9999 -9999 -9999 -9999 -9999 -9999 -9999 -9999 -9999 -9999 -9999 -9999 -9999 -9999 -9999 -9999 -9999 -9999 -9999 -9999 -9999 -9999 -9999 -9999 -9999 -9999 -9999 -9999 -9999 -9999 -9999 -9999 -9999 -9999 -9999 -9999 -9999 -9999 -9999 -9999 -9999 -9999 -9999 -9999 -9999 -9999 -9999 -9999 -9999 -9999 -9999 -9999 26 402 293 517 753 648 220 44 124 50 39 49 45 93 22 27 49 70 140 393 568 485 239 223 428 406 603 385 146 67 47 30 21 18 15 17 21 12 9 9 5 7 8 5 6 5 5 6 4 5 4 5 6 6 4 7 6 6 6 8 8 12 8 15 9 13 17 16 15 21 23 27 26 50 59 76 63 73 53 38 34 43 61 172 135 288 230 203 282 218 219 225 333 601 588 371 554 559 570
-9999 -9999 -9999 -9999 -9999 -9999 -9999 -9999 -9999 -9999 -9999 -9999 -9999 -9999 -9999 -9999 -9999 -9999 -9999 -9999 -9999 -9999 -9999 -9999 -9999 -9999 -9999 -9999 -9999 -9999 -9999 -9999 -9999 -9999 -9999 -9999 -9999 -9999 -9999 -9999 -9999 -9999 -9999 -9999 -9999 -9999 -9999 -9999 -9999 -9999 -9999 -9999 265 237 313 294 822 535 122 138 184 137 47 86 186 96 6 37 108 43 334 230 371 304 154 335 223 208 258 274 197 231 45 18 20 15 16 13 16 15 12 9 6 6 0 8 7 2 3 7 3 5 5 3 4 10 7 5 5 16 8 11 7 11 9 12 11 12 19 14 12 19 20 26 41 55 57 71 54 89 80 61 46 55 99 63 102 100 226 142 309 170 170 288 598 739 569 503 373 409 518
-9999 -9999 -9999 -9999 -9999 -9999 -9999 -9999 -9999 -9999 -9999 -9999 -9999 -9999 -9999 -9999 -9999 -9999 -9999 -9999 -9999 -9999 -9999 -9999 -9999 -9999 -9999 -9999 -9999 -9999 -9999 -9999 -9999 -9999 -9999 -9999 -9999 -9999 -9999 -9999 -9999 -9999 -9999 -9999 -9999 -9999 -9999 -9999 -9999 -9999 -9999 -9999 -9999 35 370 481 493 906 374 360 37 118 33 42 43 73 8 160 15 42 246 118 256 240 276 454 343 227 255 200 83 133 31 14 19 13 17 13 13 9 7 7 6 5 4 5 4 4 14 5 1 2 4 3 5 8 2 3 6 3 3 5 7 4 9 14 12 9 8 10 13 11 14 20 36 61 51 68 54 96 79 86 78 71 65 132 151 174 201 91 322 107 230 406 494 763 681 591 318 337 613
-9999 -9999 -9999 -9999 -9999 -9999 -9999 -9999 -9999 -9999 -9999 -9999 -9999 -9999 -9999 -9999 -9999 -9999 -9999 -9999 -9999 -9999 -9999 -9999 -9999 -9999 -9999 -9999 -9999 -9999 -9999 -9999 -9999 -9999 -9999 -9999 -9999 -9999 -9999 -9999 -9999 -9999 -9999 -9999 -9999 -9999 -9999 -9999 -9999 -9999 -9999 -9999 -9999 -9999 54 311 258 570 404 150 42 23 9 4 -9999 -9999 64 7 10 73 184 36 16 22 128 234 226 145 119 98 74 60 17 18 11 14 12 10 13 13 6 5 7 4 2 5 4 5 2 4 4 3 4 3 10 4 5 3 5 8 7 6 9 7 9 9 11 10 9 11 11 14 11 28 33 43 66 47 54 69 56 76 107 136 110 135 168 222 225 229 106 282 322 527 627 1069 845 477 469 479 592
-9999 -9999 -9999 -9999 -9999 -9999 -9999 -9999 -9999 -9999 -9999 -9999 -9999 -9999 -9999 -9999 -9999 -9999 -9999 -9999 -9999 -9999 -9999 -9999 -9999 -9999 -9999 -9999 -9999 -9999 -9999 -9999 -9999 -9999 -9999 -9999 -9999 -9999 -9999 -9999 -9999 -9999 -9999 -9999 -9999 -9999 -9999 -9999 -9999 -9999 -9999 -9999 -9999 -9999 38 170 314 635 550 180 141 113 92 91 -9999 -9999 -9999 12 46 12 55 47 143 131 57 125 124 109 51 81 26 23 17 15 13 11 12 7 9 7 7 5 -1 7 3 0 4 7 2 0 -2 -4 4 5 4 3 8 5 6 5 4 8 5 12 7 10 12 10 8 14 9 9 15 15 28 26 42 47 46 45 55 71 88 128 108 127 202 219 169 263 177 293 281 602 688 1028 1037 498 573 443 577
-9999 -9999 -9999 -9999 -9999 -9999 -9999 -9999 -9999 -9999 -9999 -9999 -9999 -9999 -9999 -9999 -9999 -9999 -9999 -9999 -9999 -9999 -9999 -9999 -9999 -9999 -9999 -9999 -9999 -9999 -9999 -9999 -9999 -9999 -9999 -9999 -9999 -9999 -9999 -9999 -9999 -9999 -9999 -9999 -9999 -9999 -9999 -9999 -9999 -9999 -9999 -9999 -9999 -9999 112 210 275 117 294 445 245 386 596 374 23 -9999 -9999 -9999 -9999 17 12 91 70 129 118 152 99 127 74 117 76 18 18 21 13 12 11 9 6 4 8 12 7 -1 0 8 6 7 4 3 8 4 5 5 2 3 7 1 5 5 8 4 9 9 5 7 15 8 6 10 8 9 7 17 22 40 33 26 38 45 52 68 95 112 92 135 126 144 149 233 222 310 418 517 659 931 833 694 446 748 530
-9999 -9999 -9999 -9999 -9999 -9999 -9999 -9999 -9999 -9999 -9999 -9999 -9999 -9999 -9999 -9999 -9999 -9999 -9999 -9999 -9999 -9999 -9999 -9999 -9999 -9999 -9999 -9999 -9999 -9999 -9999 -9999 -9999 -9999 -9999 -9999 -9999 -9999 -9999 -9999 -9999 -9999 -9999 -9999 -9999 -9999 -9999 -9999 -9999 -9999 -9999 -9999 -9999 -9999 188 278 85 27 243 468 363 367 444 289 45 -9999 -9999 -9999 -9999 84 10 12 125 171 133 109 140 113 130 74 26 53 18 67 42 34 21 14 10 7 6 5 8 6 4 3 4 2 10 3 5 3 5 6 4 4 6 5 2 8 6 8 3 3 11 5 10 11 5 10 9 8 3 17 17 17 39 27 41 47 69 48 59 101 59 76 145 121 167 215 232 232 379 492 600 736 718 638 544 764 563
-9999 -9999 -9999 -9999 -9999 -9999 -9999 -9999 -9999 -9999 -9999 -9999 -9999 -9999 -9999 -9999 -9999 -9999 -9999 -9999 -9999 -9999 -9999 -9999 -9999 -9999 -9999 -9999 -9999 -9999 -9999 -9999 -9999 -9999 -9999 -9999 -9999 -9999 -9999 -9999 -9999 -9999 -9999 -9999 -9999 -9999 -9999 -9999 -9999 -9999 -9999 -9999 -9999 -9999 -9999 -9999 71 266 480 530 322 209 94 22 12 -9999 -9999 -9999 -9999 -9999 7 -9999 20 29 150 143 249 184 138 53 45 115 63 97 35 44 28 14 11 8 2 5 6 5 -9999 4 3 4 1 4 3 3 5 4 3 5 2 3 8 5 6 6 4 3 6 4 7 8 7 7 7 4 6 11 12 31 14 21 26 31 29 51 79 102 101 143 139 168 234 255 195 455 676 523 501 575 693 646 748 752 685
-9999 -9999 -9999 -9999 -9999 -9999 -9999 -9999 -9999 -9999 -9999 -9999 -9999 -9999 -9999 -9999 -9999 -9999 -9999 -9999 -9999 -9999 -9999 -9999 -9999 -9999 -9999 -9999 -9999 -9999 -9999 -9999 -9999 -9999 -9999 -9999 -9999 -9999 -9999 -9999 -9999 -9999 -9999 -9999 -9999 -9999 -9999 -9999 -9999 -9999 -9999 -9999 -9999 -9999 -9999 7 355 478 813 750 589 408 304 234 -9999 -9999 -9999 -9999 -9999 -9999 -9999 -9999 16 75 115 192 284 207 99 195 141 146 179 107 102 81 41 41 14 14 7 1 -9999 -9999 -9999 -9999 4 -9999 1 5 4 3 6 2 3 3 5 4 6 4 -2 4 6 2 3 2 6 8 5 7 6 9 9 12 14 16 27 36 24 39 43 43 53 97 117 103 106 199 225 242 258 346 553 286 433 522 521 817 751 471 420
-9999 -9999 -9999 -9999 -9999 -9999 -9999 -9999 -9999 -9999 -9999 -9999 -9999 -9999 -9999 -9999 -9999 -9999 -9999 -9999 -9999 -9999 -9999 -9999 -9999 -9999 -9999 -9999 -9999 -9999 -9999 -9999 -9999 -9999 -9999 -9999 -9999 -9999 -9999 -9999 -9999 -9999 -9999 -9999 -9999 -9999 -9999 -9999 -9999 -9999 -9999 -9999 -9999 -9999 170 360 75 28 116 282 722 600 294 224 -9999 -9999 -9999 -9999 -9999 28 130 10 150 79 123 166 237 302 184 202 238 141 186 145 129 107 71 56 32 19 12 8 -9999 -9999 -9999 -9999 -9999 -9999 1 3 3 5 2 3 1 6 4 3 5 3 2 2 3 5 5 6 4 8 4 6 4 0 8 5 18 23 32 34 32 55 70 67 76 83 82 156 171 235 231 239 255 271 352 366 384 492 385 593 565 426 678
-9999 -9999 -9999 -9999 -9999 -9999 -9999 -9999 -9999 -9999 -9999 -9999 -9999 -9999 -9999 -9999 -9999 -9999 -9999 -9999 -9999 -9999 -9999 -9999 -9999 -9999 -9999 -9999 -9999 -9999 -9999 -9999 -9999 -9999 -9999 -9999 -9999 -9999 -9999 -9999 -9999 -9999 -9999 -9999 -9999 -9999 -9999 -9999 -9999 -9999 -9999 -9999 -9999 -9999 -9999 -9999 -9999 -9999 150 374 456 764 322 59 -9999 -9999 -9999 -9999 -9999 -9999 26 88 103 49 306 215 295 339 294 337 306 333 248 230 171 148 98 73 31 17 10 7 -9999 -9999 -9999 -9999 -9999 -9999 -9999 3 4 1 4 2 3 4 9 6 4 3 6 4 4 4 2 0 1 3 7 5 2 2 5 11 15 26 29 24 32 41 57 59 54 82 97 111 141 213 211 148 145 104 208 263 296 352 496 352 275 420 736
-9999 -9999 -9999 -9999 -9999 -9999 -9999 -9999 -9999 -9999 -9999 -9999 -9999 -9999 -9999 -9999 -9999 -9999 -9999 -9999 -9999 -9999 -9999 -9999 -9999 -9999 -9999 -9999 -9999 -9999 -9999 -9999 -9999 -9999 -9999 -9999 -9999 -9999 -9999 -9999 -9999 -9999 -9999 -9999 -9999 -9999 -9999 -9999 -9999 -9999 -9999 -9999 -9999 -9999 -9999 -9999 61 -9999 8 32 178 359 140 -9999 -9999 -9999 -9999 -9999 -9999 14 97 101 208 189 164 290 400 324 383 347 315 394 233 261 200 157 103 82 32 12 8 4 -9999 -9999 -9999 -9999 -9999 -9999 -9999 -9999 5 6 7 4 3 4 3 2 3 7 3 5 2 4 2 4 9 4 5 4 3 2 5 8 10 10 37 36 59 33 48 61 51 68 71 116 135 176 210 100 236 84 90 262 253 238 316 250 404 654 930
-9999 -9999 -9999 -9999 -9999 -9999 -9999 -9999 -9999 -9999 -9999 -9999 -9999 -9999 -9999 -9999 -9999 -9999 -9999 -9999 -9999 -9999 -9999 -9999 -9999 -9999 -9999 -9999 -9999 -9999 -9999 -9999 -9999 -9999 -9999 -9999 -9999 -9999 -9999 -9999 -9999 -9999 -9999 -9999 -9999 -9999 -9999 -9999 -9999 -9999 -9999 -9999 -9999 -9999 -9999 -9999 -9999 -9999 97 13 213 79 158 -9999 -9999 -9999 -9999 -9999 67 115 189 199 152 209 335 242 474 670 756 708 542 421 381 262 249 210 121 70 38 18 7 8 -9999 -9999 -9999 -9999 -9999 -9999 -9999 -9999 -9999 -9999 -9999 -9999 -9999 -9999 -9999 1 5 6 6 4 3 3 -9999 4 4 4 4 3 3 4 3 8 13 19 25 25 42 40 47 67 70 87 88 114 143 166 193 53 56 67 62 81 171 378 331 260 310 809 969
-9999 -9999 -9999 -9999 -9999 -9999 -9999 -9999 -9999 -9999 -9999 -9999 -9999 -9999 -9999 -9999 -9999 -9999 -9999 -9999 -9999 -9999 -9999 -9999 -9999 -9999 -9999 -9999 -9999 -9999 -9999 -9999 -9999 -9999 -9999 -9999 -9999 -9999 -9999 -9999 -9999 -9999 -9999 -9999 -9999 -9999 -9999 -9999 -9999 -9999 -9999 -9999 -9999 -9999 -9999 -9999 -9999 -9999 -9999 -9999 -9999 -9999 -9999 -9999 -9999 -9999 -9999 -9999 43 91 60 19 143 143 272 318 557 632 827 776 558 519 349 370 262 214 144 103 44 27 7 3 -9999 -9999 -9999 -9999 -9999 -9999 -9999 -9999 -9999 -9999 -9999 -9999 -9999 -9999 -9999 -9999 -9999 -9999 -9999 -9999 -9999 -9999 -9999 5 5 8 4 -1 4 1 0 0 6 8 24 21 38 54 53 58 81 78 99 117 116 140 52 37 37 66 213 144 256 254 415 342 274 684 682
-9999 -9999 -9999 -9999 -9999 -9999 -9999 -9999 -9999 -9999 -9999 -9999 -9999 -9999 -9999 -9999 -9999 -9999 -9999 -9999 -9999 -9999 -9999 -9999 -9999 -9999 -9999 -9999 -9999 -9999 -9999 -9999 -9999 -9999 -9999 -9999 -9999 -9999 -9999 -9999 -9999 -9999 -9999 -9999 -9999 -9999 -9999 -9999 -9999 -9999 -9999 -9999 -9999 -9999 -9999 -9999 -9999 -9999 -9999 -9999 -9999 -9999 -9999 -9999 -9999 -9999 -9999 -9999 54 59 35 44 251 186 240 253 337 410 574 651 667 721 493 419 243 253 183 125 56 31 9 3 -9999 -9999 -9999 -9999 -9999 -9999 -9999 -9999 -9999 -9999 -9999 -9999 -9999 -9999 -9999 -9999 -9999 -9999 -9999 -9999 -9999 -9999 -9999 -9999 4 3 5 3 7 5 4 8 5 7 16 25 37 45 66 69 82 101 98 91 98 146 21 23 48 50 91 303 278 230 276 221 197 384 543
-9999 -9999 -9999 -9999 -9999 -9999 -9999 -9999 -9999 -9999 -9999 -9999 -9999 -9999 -9999 -9999 -9999 -9999 -9999 -9999 -9999 -9999 -9999 -9999 -9999 -9999 -9999 -9999 -9999 -9999 -9999 -9999 -9999 -9999 -9999 -9999 -9999 -9999 -9999 -9999 -9999 -9999 -9999 -9999 -9999 -9999 -9999 -9999 -9999 -9999 -9999 -9999 -9999 -9999 -9999 -9999 -9999 -9999 -9999 -9999 -9999 -9999 -9999 -9999 -9999 -9999 -9999 -9999 32 77 139 148 150 98 226 286 327 533 598 756 850 898 637 577 321 249 161 114 44 17 8 3 -9999 -9999 -9999 -9999 -9999 -9999 -9999 -9999 -9999 -9999 -9999 -9999 -9999 -9999 -9999 -9999 -9999 -9999 -9999 -9999 -9999 -9999 -9999 -9999 -9999 4 3 4 4 2 5 3 7 3 17 26 36 44 65 63 75 78 77 79 99 114 23 27 48 229 45 348 211 325 525 148 202 527 747
-9999 -9999 -9999 -9999 -9999 -9999 -9999 -9999 -9999 -9999 -9999 -9999 -9999 -9999 -9999 -9999 -9999 -9999 -9999 -9999 -9999 -9999 -9999 -9999 -9999 -9999 -9999 -9999 -9999 -9999 -9999 -9999 -9999 -9999 -9999 -9999 -9999 -9999 -9999 -9999 -9999 -9999 -9999 -9999 -9999 -9999 -9999 -9999 -9999 -9999 -9999 -9999 -9999 -9999 -9999 -9999 -9999 -9999 -9999 -9999 -9999 -9999 -9999 -9999 -9999 -9999 -9999 -9999 51 39 72 54 120 266 387 397 675 443 664 845 779 885 642 636 426 271 110 83 38 25 9 3 -9999 -9999 -9999 -9999 -9999 -9999 -9999 -9999 -9999 -9999 -9999 -9999 -9999 -9999 -9999 -9999 -9999 -9999 -9999 -9999 -9999 -9999 -9999 -9999 -9999 -9999 1 -9999 3 4 5 3 5 8 17 22 34 33 33 42 57 61 67 74 34 25 24 30 201 324 131 145 188 223 210 217 289 711 359
-9999 -9999 -9999 -9999 -9999 -9999 -9999 -9999 -9999 -9999 -9999 -9999 -9999 -9999 -9999 -9999 -9999 -9999 -9999 -9999 -9999 -9999 -9999 -9999 -9999 -9999 -9999 -9999 -9999 -9999 -9999 -9999 -9999 -9999 -9999 -9999 -9999 -9999 -9999 -9999 -9999 -9999 -9999 -9999 -9999 -9999 -9999 -9999 -9999 -9999 -9999 -9999 -9999 -9999 -9999 -9999 -9999 -9999 -9999 -9999 -9999 -9999 -9999 -9999 -9999 -9999 -9999 -9999 21 43 83 143 118 199 475 593 847 670 630 826 859 857 480 412 460 496 158 99 39 20 6 3 6 -9999 -9999 -9999 -9999 -9999 -9999 -9999 -9999 -9999 -9999 -9999 -9999 -9999 -9999 -9999 -9999 -9999 -9999 -9999 -9999 -9999 -9999 -9999 -9999 -9999 -9999 -9999 4 6 5 -1 9 9 10 15 37 25 42 53 48 61 66 53 41 12 20 26 219 105 376 190 100 210 280 215 284 333 226
-9999 -9999 -9999 -9999 -9999 -9999 -9999 -9999 -9999 -9999 -9999 -9999 -9999 -9999 -9999 -9999 -9999 -9999 -9999 -9999 -9999 -9999 -9999 -9999 -9999 -9999 -9999 -9999 -9999 -9999 -9999 -9999 -9999 -9999 -9999 -9999 -9999 -9999 -9999 -9999 -9999 -9999 -9999 -9999 -9999 -9999 -9999 -9999 -9999 -9999 -9999 -9999 -9999 -9999 -9999 -9999 -9999 -9999 -9999 -9999 -9999 -9999 -9999 -9999 -9999 -9999 -9999 -9999 10 21 33 18 164 163 298 377 788 858 737 976 739 563 623 648 335 419 166 110 49 25 8 7 1 -9999 -9999 -9999 -9999 -9999 -9999 -9999 -9999 -9999 -9999 -9999 -9999 -9999 -9999 -9999 -9999 -9999 -9999 -9999 -9999 -9999 -9999 -9999 -9999 -9999 -9999 -9999 -9999 -9999 7 4 5 16 23 21 23 28 45 44 60 62 82 94 21 18 30 93 354 358 209 316 257 187 385 282 207 368 -9999
-9999 -9999 -9999 -9999 -9999 -9999 -9999 -9999 -9999 -9999 -9999 -9999 -9999 -9999 -9999 -9999 -9999 -9999 -9999 -9999 -9999 -9999 -9999 -9999 -9999 -9999 -9999 -9999 -9999 -9999 -9999 -9999 -9999 -9999 -9999 -9999 -9999 -9999 -9999 -9999 -9999 -9999 -9999 -9999 -9999 -9999 -9999 -9999 -9999 -9999 -9999 -9999 -9999 -9999 -9999 -9999 -9999 -9999 -9999 -9999 -9999 -9999 -9999 -9999 -9999 -9999 -9999 -9999 -9999 6 43 72 37 71 236 330 541 729 742 652 484 512 417 465 305 148 141 100 49 30 11 13 7 -9999 -9999 -9999 -9999 -9999 -9999 -9999 -9999 -9999 -9999 -9999 -9999 -9999 -9999 -9999 -9999 -9999 -9999 -9999 -9999 -9999 -9999 -9999 -9999 -9999 -9999 -9999 -9999 -9999 7 7 5 8 19 15 28 38 43 51 58 74 81 80 11 19 34 138 336 331 282 311 380 183 284 183 428 369 -9999
-9999 -9999 -9999 -9999 -9999 -9999 -9999 -9999 -9999 -9999 -9999 -9999 -9999 -9999 -9999 -9999 -9999 -9999 -9999 -9999 -9999 -9999 -9999 -9999 -9999 -9999 -9999 -9999 -9999 -9999 -9999 -9999 -9999 -9999 -9999 -9999 -9999 -9999 -9999 -9999 -9999 -9999 -9999 -9999 -9999 -9999 -9999 -9999 -9999 -9999 -9999 -9999 -9999 -9999 -9999 -9999 -9999 -9999 -9999 -9999 -9999 -9999 -9999 -9999 -9999 -9999 -9999 -9999 -9999 -9999 -9999 11 67 106 204 237 389 605 485 514 442 439 346 265 247 201 130 97 49 32 14 13 11 1 -9999 -9999 -9999 -9999 -9999 -9999 -9999 -9999 -9999 -9999 -9999 -9999 -9999 -9999 -9999 -9999 -9999 -9999 -9999 -9999 -9999 -9999 -9999 -9999 -9999 -9999 -9999 -9999 -9999 6 7 12 23 20 30 24 35 44 58 62 92 32 18 30 72 113 294 309 377 332 421 332 163 187 343 467 -9999
-9999 -9999 -9999 -9999 -9999 -9999 -9999 -9999 -9999 -9999 -9999 -9999 -9999 -9999 -9999 -9999 -9999 -9999 -9999 -9999 -9999 -9999 -9999 -9999 -9999 -9999 -9999 -9999 -9999 -9999 -9999 -9999 -9999 -9999 -9999 -9999 -9999 -9999 -9999 -9999 -9999 -9999 -9999 -9999 -9999 -9999 -9999 -9999 -9999 -9999 -9999 -9999 -9999 -9999 -9999 -9999 -9999 -9999 -9999 -9999 -9999 -9999 -9999 -9999 -9999 -9999 -9999 -9999 -9999 -9999 -9999 -9999 19 121 47 97 340 209 263 319 327 329 244 238 159 109 102 79 37 31 16 13 9 9 -9999 -9999 -9999 -9999 -9999 -9999 -9999 -9999 -9999 -9999 -9999 -9999 -9999 -9999 -9999 -9999 -9999 -9999 -9999 -9999 -9999 -9999 -9999 -9999 -9999 -9999 -9999 -9999 -9999 -9999 7 10 32 28 28 17 41 50 56 66 54 11 18 35 36 175 211 397 302 324 340 391 184 189 290 238 -9999
-9999 -9999 -9999 -9999 -9999 -9999 -9999 -9999 -9999 -9999 -9999 -9999 -9999 -9999 -9999 -9999 -9999 -9999 -9999 -9999 -9999 -9999 -9999 -9999 -9999 -9999 -9999 -9999 -9999 -9999 -9999 -9999 -9999 -9999 -9999 -9999 -9999 -9999 -9999 -9999 -9999 -9999 -9999 -9999 -9999 -9999 -9999 -9999 -9999 -9999 -9999 -9999 -9999 -9999 -9999 -9999 -9999 -9999 -9999 -9999 -9999 -9999 -9999 -9999 -9999 -9999 -9999 -9999 -9999 -9999 -9999 -9999 -9999 87 30 159 211 145 196 161 186 208 221 208 122 102 68 54 29 17 18 16 10 8 -9999 -9999 -9999 -9999 -9999 -9999 -9999 -9999 -9999 -9999 -9999 -9999 -9999 -9999 -9999 -9999 -9999 -9999 -9999 -9999 -9999 -9999 -9999 -9999 -9999 -9999 -9999 -9999 -9999 -9999 13 7 12 20 13 23 37 47 66 71 47 17 16 35 43 126 211 265 226 325 359 324 182 170 358 230 -9999
-9999 -9999 -9999 -9999 -9999 -9999 -9999 -9999 -9999 -9999 -9999 -9999 -9999 -9999 -9999 -9999 -9999 -9999 -9999 -9999 -9999 -9999 -9999 -9999 -9999 -9999 -9999 -9999 -9999 -9999 -9999 -9999 -9999 -9999 -9999 -9999 -9999 -9999 -9999 -9999 -9999 -9999 -9999 -9999 -9999 -9999 -9999 -9999 -9999 -9999 -9999 -9999 -9999 -9999 -9999 -9999 -9999 -9999 -9999 -9999 -9999 -9999 -9999 -9999 -9999 -9999 -9999 -9999 -9999 -9999 -9999 -9999 -9999 -9999 -9999 -9999 -9999 32 84 91 101 142 146 159 144 142 166 76 144 46 40 27 10 9 -9999 -9999 -9999 -9999 -9999 -9999 -9999 -9999 -9999 -9999 -9999 -9999 -9999 -9999 -9999 -9999 -9999 -9999 -9999 -9999 -9999 -9999 -9999 -9999 -9999 -9999 -9999 -9999 -9999 -9999 -9999 9 8 14 12 21 34 39 50 51 4 11 14 22 52 93 181 174 229 218 290 308 324 182 202 194 -9999
-9999 -9999 -9999 -9999 -9999 -9999 -9999 -9999 -9999 -9999 -9999 -9999 -9999 -9999 -9999 -9999 -9999 -9999 -9999 -9999 -9999 -9999 -9999 -9999 -9999 -9999 -9999 -9999 -9999 -9999 -9999 -9999 -9999 -9999 -9999 -9999 -9999 -9999 -9999 -9999 -9999 -9999 -9999 -9999 -9999 -9999 -9999 -9999 -9999 -9999 -9999 -9999 -9999 -9999 -9999 -9999 -9999 -9999 -9999 -9999 -9999 -9999 -9999 -9999 -9999 -9999 -9999 -9999 -9999 -9999 -9999 -9999 -9999 -9999 -9999 -9999 -9999 -9999 33 46 49 109 168 162 187 158 174 138 290 132 81 54 35 15 -9999 -9999 -9999 -9999 -9999 -9999 -9999 -9999 -9999 -9999 -9999 -9999 -9999 -9999 -9999 -9999 -9999 -9999 -9999 -9999 -9999 -9999 -9999 -9999 -9999 -9999 -9999 -9999 -9999 -9999 4 3 6 8 16 9 33 36 54 46 17 15 14 13 43 121 112 126 147 170 175 255 186 224 191 218 -9999
-9999 -9999 -9999 -9999 -9999 -9999 -9999 -9999 -9999 -9999 -9999 -9999 -9999 -9999 -9999 -9999 -9999 -9999 -9999 -9999 -9999 -9999 -9999 -9999 -9999 -9999 -9999 -9999 -9999 -9999 -9999 -9999 -9999 -9999 -9999 -9999 -9999 -9999 -9999 -9999 -9999 -9999 -9999 -9999 -9999 -9999 -9999 -9999 -9999 -9999 -9999 -9999 -9999 -9999 -9999 -9999 -9999 -9999 -9999 -9999 -9999 -9999 -9999 -9999 -9999 -9999 -9999 -9999 -9999 -9999 -9999 -9999 -9999 -9999 -9999 -9999 -9999 -9999 8 8 72 139 197 230 272 229 242 298 431 206 119 101 52 17 -9999 -9999 -9999 -9999 -9999 -9999 -9999 -9999 -9999 -9999 -9999 -9999 -9999 -9999 -9999 -9999 -9999 -9999 -9999 -9999 -9999 -9999 -9999 -9999 -9999 -9999 -9999 -9999 -9999 -9999 -9999 13 7 7 18 10 31 24 50 56 15 14 11 13 19 32 154 210 238 193 171 80 182 149 187 191 -9999
-9999 -9999 -9999 -9999 -9999 -9999 -9999 -9999 -9999 -9999 -9999 -9999 -9999 -9999 -9999 -9999 -9999 -9999 -9999 -9999 -9999 -9999 -9999 -9999 -9999 -9999 -9999 -9999 -9999 -9999 -9999 -9999 -9999 -9999 -9999 -9999 -9999 -9999 -9999 -9999 -9999 -9999 -9999 -9999 -9999 -9999 -9999 -9999 -9999 -9999 -9999 -9999 -9999 -9999 -9999 -9999 -9999 -9999 -9999 -9999 -9999 -9999 -9999 -9999 -9999 -9999 -9999 -9999 -9999 -9999 -9999 -9999 -9999 -9999 -9999 -9999 -9999 -9999 -9999 9 19 78 162 280 200 249 329 354 274 234 163 156 93 85 3 -9999 -9999 -9999 -9999 -9999 -9999 -9999 -9999 -9999 -9999 -9999 -9999 -9999 -9999 -9999 -9999 -9999 -9999 -9999 -9999 -9999 -9999 -9999 -9999 -9999 -9999 -9999 -9999 -9999 5 3 9 8 -9999 11 17 28 46 43 13 15 11 13 56 42 128 207 240 273 87 71 113 123 230 211 -9999
-9999 -9999 -9999 -9999 -9999 -9999 -9999 -9999 -9999 -9999 -9999 -9999 -9999 -9999 -9999 -9999 -9999 -9999 -9999 -9999 -9999 -9999 -9999 -9999 -9999 -9999 -9999 -9999 -9999 -9999 -9999 -9999 -9999 -9999 -9999 -9999 -9999 -9999 -9999 -9999 -9999 -9999 -9999 -9999 -9999 -9999 -9999 -9999 -9999 -9999 -9999 -9999 -9999 -9999 -9999 -9999 -9999 -9999 -9999 -9999 -9999 -9999 -9999 -9999 -9999 -9999 -9999 -9999 -9999 -9999 -9999 -9999 -9999 -9999 -9999 -9999 -9999 -9999 24 96 152 241 215 323 304 361 333 412 350 285 192 195 132 97 38 -9999 -9999 -9999 -9999 -9999 -9999 -9999 -9999 -9999 -9999 -9999 -9999 -9999 -9999 -9999 -9999 -9999 -9999 -9999 -9999 -9999 -9999 -9999 -9999 -9999 -9999 -9999 -9999 -9999 -9999 -9999 14 9 8 8 12 34 65 33 10 8 10 11 25 55 153 226 211 223 60 87 73 83 185 200 -9999
-9999 -9999 -9999 -9999 -9999 -9999 -9999 -9999 -9999 -9999 -9999 -9999 -9999 -9999 -9999 -9999 -9999 -9999 -9999 -9999 -9999 -9999 -9999 -9999 -9999 -9999 -9999 -9999 -9999 -9999 -9999 -9999 -9999 -9999 -9999 -9999 -9999 -9999 -9999 -9999 -9999 -9999 -9999 -9999 -9999 -9999 -9999 -9999 -9999 -9999 -9999 -9999 -9999 -9999 -9999 -9999 -9999 -9999 -9999 -9999 -9999 -9999 -9999 -9999 -9999 -9999 -9999 -9999 -9999 -9999 -9999 -9999 -9999 -9999 -9999 -9999 -9999 -9999 -9999 27 81 211 220 429 499 533 585 649 424 343 294 196 159 114 45 9 -9999 -9999 -9999 -9999 -9999 -9999 -9999 -9999 -9999 -9999 -9999 -9999 -9999 -9999 -9999 -9999 -9999 -9999 -9999 -9999 -9999 -9999 -9999 -9999 -9999 -9999 -9999 -9999 -9999 -9999 20 8 5 9 9 20 45 38 9 11 9 6 15 48 131 195 209 233 54 55 106 91 161 180 -9999
-9999 -9999 -9999 -9999 -9999 -9999 -9999 -9999 -9999 -9999 -9999 -9999 -9999 -9999 -9999 -9999 -9999 -9999 -9999 -9999 -9999 -9999 -9999 -9999 -9999 -9999 -9999 -9999 -9999 -9999 -9999 -9999 -9999 -9999 -9999 -9999 -9999 -9999 -9999 -9999 -9999 -9999 -9999 -9999 -9999 -9999 -9999 -9999 -9999 -9999 -9999 -9999 -9999 -9999 -9999 -9999 -9999 -9999 -9999 -9999 -9999 -9999 -9999 -9999 -9999 -9999 -9999 -9999 -9999 -9999 -9999 -9999 -9999 -9999 -9999 -9999 -9999 -9999 -9999 48 108 230 307 520 641 429 728 617 524 435 408 304 154 96 39 8 -9999 -9999 -9999 -9999 -9999 -9999 -9999 -9999 -9999 -9999 -9999 -9999 -9999 -9999 -9999 -9999 -9999 -9999 -9999 -9999 -9999 -9999 -9999 -9999 -9999 -9999 -9999 -9999 -9999 -9999 6 10 6 24 21 20 36 7 5 7 7 8 9 18 105 157 221 197 49 60 67 38 146 105 -9999
-9999 -9999 -9999 -9999 -9999 -9999 -9999 -9999 -9999 -9999 -9999 -9999 -9999 -9999 -9999 -9999 -9999 -9999 -9999 -9999 -9999 -9999 -9999 -9999 -9999 -9999 -9999 -9999 -9999 -9999 -9999 -9999 -9999 -9999 -9999 -9999 -9999 -9999 -9999 -9999 -9999 -9999 -9999 -9999 -9999 -9999 -9999 -9999 -9999 -9999 -9999 -9999 -9999 -9999 -9999 -9999 -9999 -9999 -9999 -9999 -9999 -9999 -9999 -9999 -9999 -9999 -9999 -9999 -9999 -9999 -9999 -9999 -9999 -9999 -9999 -9999 -9999 -9999 -9999 122 205 387 518 724 849 676 786 906 746 760 654 268 144 98 67 12 -9999 -9999 -9999 -9999 -9999 -9999 -9999 -9999 -9999 -9999 -9999 -9999 -9999 -9999 -9999 -9999 -9999 -9999 -9999 -9999 -9999 -9999 -9999 -9999 -9999 -9999 -9999 -9999 -9999 -9999 18 9 17 9 27 31 10 8 4 12 4 5 7 13 76 78 215 194 45 45 99 71 51 74 -9999
-9999 -9999 -9999 -9999 -9999 -9999 -9999 -9999 -9999 -9999 -9999 -9999 -9999 -9999 -9999 -9999 -9999 -9999 -9999 -9999 -9999 -9999 -9999 -9999 -9999 -9999 -9999 -9999 -9999 -9999 -9999 -9999 -9999 -9999 -9999 -9999 -9999 -9999 -9999 -9999 -9999 -9999 -9999 -9999 -9999 -9999 -9999 -9999 -9999 -9999 -9999 -9999 -9999 -9999 -9999 -9999 -9999 -9999 -9999 -9999 -9999 -9999 -9999 -9999 -9999 -9999 -9999 -9999 -9999 -9999 -9999 -9999 -9999 -9999 -9999 -9999 -9999 -9999 53 85 177 356 557 863 1073 748 735 1135 952 732 643 262 195 93 86 56 -9999 -9999 -9999 -9999 -9999 -9999 -9999 -9999 -9999 -9999 -9999 -9999 -9999 -9999 -9999 -9999 -9999 -9999 -9999 -9999 -9999 -9999 -9999 -9999 -9999 -9999 -9999 -9999 -9999 -9999 4 -1 7 8 23 23 6 8 5 5 5 2 5 3 38 92 195 201 42 51 25 25 15 55 -9999
-9999 -9999 -9999 -9999 -9999 -9999 -9999 -9999 -9999 -9999 -9999 -9999 -9999 -9999 -9999 -9999 -9999 -9999 -9999 -9999 -9999 -9999 -9999 -9999 -9999 -9999 -9999 -9999 -9999 -9999 -9999 -9999 -9999 -9999 -9999 -9999 -9999 -9999 -9999 -9999 -9999 -9999 -9999 -9999 -9999 -9999 -9999 -9999 -9999 -9999 -9999 -9999 -9999 -9999 -9999 -9999 -9999 -9999 -9999 -9999 -9999 -9999 -9999 -9999 -9999 -9999 -9999 -9999 -9999 -9999 -9999 -9999 -9999 -9999 -9999 -9999 -9999 -9999 17 125 150 320 418 770 1137 1070 1149 802 821 397 303 299 260 158 94 27 -9999 -9999 -9999 -9999 -9999 -9999 -9999 -9999 -9999 -9999 -9999 -9999 -9999 -9999 -9999 -9999 -9999 -9999 -9999 -9999 -9999 -9999 -9999 -9999 -9999 -9999 -9999 -9999 -9999 -9999 0 2 11 17 18 23 10 5 0 2 2 2 2 3 10 39 115 153 35 81 18 7 5 13 -9999
-9999 -9999 -9999 -9999 -9999 -9999 -9999 -9999 -9999 -9999 -9999 -9999 -9999 -9999 -9999 -9999 -9999 -9999 -9999 -9999 -9999 -9999 -9999 -9999 -9999 -9999 -9999 -9999 -9999 -9999 -9999 -9999 -9999 -9999 -9999 -9999 -9999 -9999 -9999 -9999 -9999 -9999 -9999 -9999 -9999 -9999 -9999 -9999 -9999 -9999 -9999 -9999 -9999 -9999 -9999 -9999 -9999 -9999 -9999 -9999 -9999 -9999 -9999 -9999 -9999 -9999 -9999 -9999 -9999 -9999 -9999 -9999 -9999 -9999 -9999 -9999 -9999 -9999 52 172 246 381 446 744 865 1103 821 598 688 473 359 187 135 142 46 35 -9999 -9999 -9999 -9999 -9999 -9999 -9999 -9999 -9999 -9999 -9999 -9999 -9999 -9999 -9999 -9999 -9999 -9999 -9999 -9999 -9999 -9999 -9999 -9999 -9999 -9999 -9999 -9999 -9999 -9999 6 6 9 7 17 29 8 5 5 2 2 2 2 2 5 30 60 119 31 54 7 8 3 1 -9999
-9999 -9999 -9999 -9999 -9999 -9999 -9999 -9999 -9999 -9999 -9999 -9999 -9999 -9999 -9999 -9999 -9999 -9999 -9999 -9999 -9999 -9999 -9999 -9999 -9999 -9999 -9999 -9999 -9999 -9999 -9999 -9999 -9999 -9999 -9999 -9999 -9999 -9999 -9999 -9999 -9999 -9999 -9999 -9999 -9999 -9999 -9999 -9999 -9999 -9999 -9999 -9999 -9999 -9999 -9999 -9999 -9999 -9999 -9999 -9999 -9999 -9999 -9999 -9999 -9999 -9999 -9999 -9999 -9999 -9999 -9999 -9999 -9999 -9999 -9999 -9999 -9999 -9999 -9999 153 104 221 290 464 520 535 666 556 383 357 260 248 223 128 99 25 -9999 -9999 -9999 -9999 -9999 -9999 -9999 -9999 -9999 -9999 -9999 -9999 -9999 -9999 -9999 -9999 -9999 -9999 -9999 -9999 -9999 -9999 -9999 -9999 6 6 -9999 -9999 -9999 -9999 -9999 7 11 13 28 34 13 2 2 2 2 2 2 2 2 3 19 66 67 98 5 2 2 2 -9999
-9999 -9999 -9999 -9999 -9999 -9999 -9999 -9999 -9999 -9999 -9999 -9999 -9999 -9999 -9999 -9999 -9999 -9999 -9999 -9999 -9999 -9999 -9999 -9999 -9999 -9999 -9999 -9999 -9999 -9999 -9999 -9999 -9999 -9999 -9999 -9999 -9999 -9999 -9999 -9999 -9999 -9999 -9999 -9999 -9999 -9999 -9999 -9999 -9999 -9999 -9999 -9999 -9999 -9999 -9999 -9999 -9999 -9999 -9999 -9999 -9999 -9999 -9999 -9999 -9999 -9999 -9999 -9999 -9999 -9999 -9999 -9999 -9999 -9999 -9999 -9999 -9999 -9999 -9999 81 188 259 289 395 394 307 511 506 398 227 265 147 175 130 66 27 -9999 -9999 -9999 -9999 -9999 -9999 -9999 -9999 -9999 -9999 -9999 -9999 -9999 -9999 -9999 -9999 -9999 -9999 -9999 -9999 -9999 -9999 -9999 6 -9999 6 -9999 -9999 -9999 -9999 7 5 14 14 22 30 25 2 2 2 2 2 2 2 2 2 6 56 62 81 5 2 2 2 -9999
-9999 -9999 -9999 -9999 -9999 -9999 -9999 -9999 -9999 -9999 -9999 -9999 -9999 -9999 -9999 -9999 -9999 -9999 -9999 -9999 -9999 -9999 -9999 -9999 -9999 -9999 -9999 -9999 -9999 -9999 -9999 -9999 -9999 -9999 -9999 -9999 -9999 -9999 -9999 -9999 -9999 -9999 -9999 -9999 -9999 -9999 -9999 -9999 -9999 -9999 -9999 -9999 -9999 -9999 -9999 -9999 -9999 -9999 -9999 -9999 -9999 -9999 -9999 -9999 -9999 -9999 -9999 -9999 -9999 -9999 -9999 -9999 -9999 -9999 -9999 -9999 -9999 -9999 -9999 52 81 154 108 223 130 141 232 331 245 255 183 132 138 101 71 20 -9999 -9999 -9999 -9999 -9999 -9999 -9999 -9999 -9999 -9999 -9999 -9999 -9999 -9999 -9999 -9999 -9999 -9999 -9999 -9999 -9999 -9999 -9999 6 -9999 -9999 -9999 -9999 -9999 6 10 9 13 16 24 32 2 2 2 2 2 2 2 2 2 2 2 19 85 100 3 2 2 2 -9999
-9999 -9999 -9999 -9999 -9999 -9999 -9999 -9999 -9999 -9999 -9999 -9999 -9999 -9999 -9999 -9999 -9999 -9999 -9999 -9999 -9999 -9999 -9999 -9999 -9999 -9999 -9999 -9999 -9999 -9999 -9999 -9999 -9999 -9999 -9999 -9999 -9999 -9999 -9999 -9999 -9999 -9999 -9999 -9999 -9999 -9999 -9999 -9999 -9999 -9999 -9999 -9999 -9999 -9999 -9999 -9999 -9999 -9999 -9999 -9999 -9999 -9999 -9999 -9999 -9999 -9999 -9999 -9999 -9999 -9999 -9999 -9999 -9999 -9999 -9999 -9999 -9999 -9999 -9999 30 -9999 41 105 157 72 81 201 96 122 238 211 153 121 47 16 -9999 -9999 -9999 -9999 -9999 -9999 -9999 -9999 -9999 -9999 -9999 -9999 -9999 -9999 -9999 -9999 -9999 -9999 -9999 -9999 -9999 -9999 -9999 3 -9999 -9999 -9999 -9999 -1 6 7 8 12 17 22 27 33 2 2 2 2 2 2 2 2 2 2 3 9 89 134 2 2 2 2 -9999
-9999 -9999 -9999 -9999 -9999 -9999 -9999 -9999 -9999 -9999 -9999 -9999 -9999 -9999 -9999 -9999 -9999 -9999 -9999 -9999 -9999 -9999 -9999 -9999 -9999 -9999 -9999 -9999 -9999 -9999 -9999 -9999 -9999 -9999 -9999 -9999 -9999 -9999 -9999 -9999 -9999 -9999 -9999 -9999 -9999 -9999 -9999 -9999 -9999 -9999 -9999 -9999 -9999 -9999 -9999 -9999 -9999 -9999 -9999 -9999 -9999 -9999 -9999 -9999 -9999 -9999 -9999 -9999 -9999 -9999 -9999 -9999 -9999 -9999 -9999 -9999 -9999 -9999 -9999 -9999 -9999 -9999 23 25 108 43 93 14 105 193 170 119 98 46 23 -9999 -9999 -9999 -9999 -9999 -9999 -9999 -9999 -9999 -9999 -9999 -9999 -9999 -9999 -9999 -9999 -9999 -9999 -9999 -9999 -9999 -9999 -9999 3 1 4 7 6 6 9 8 17 19 21 28 31 18 2 2 2 2 2 2 2 2 2 2 2 2 21 105 2 2 2 2 -9999
-9999 -9999 -9999 -9999 -9999 -9999 -9999 -9999 -9999 -9999 -9999 -9999 -9999 -9999 -9999 -9999 -9999 -9999 -9999 -9999 -9999 -9999 -9999 -9999 -9999 -9999 -9999 -9999 -9999 -9999 -9999 -9999 -9999 -9999 -9999 -9999 -9999 -9999 -9999 -9999 -9999 -9999 -9999 -9999 -9999 -9999 -9999 -9999 -9999 -9999 -9999 -9999 -9999 -9999 -9999 -9999 -9999 -9999 -9999 -9999 -9999 -9999 -9999 -9999 -9999 -9999 -9999 -9999 -9999 -9999 -9999 -9999 -9999 -9999 -9999 -9999 -9999 -9999 -9999 -9999 -9999 -9999 -9999 -9999 85 9 -9999 -9999 9 65 65 58 45 -9999 -9999 -9999 -9999 -9999 -9999 -9999 -9999 -9999 -9999 -9999 -9999 -9999 -9999 -9999 -9999 -9999 -9999 -9999 -9999 -9999 -9999 -9999 -9999 -9999 6 1 4 3 11 9 13 9 21 25 29 26 23 15 2 2 2 2 2 2 2 2 2 2 2 2 83 76 2 2 2 2 -9999
-9999 -9999 -9999 -9999 -9999 -9999 -9999 -9999 -9999 -9999 -9999 -9999 -9999 -9999 -9999 -9999 -9999 -9999 -9999 -9999 -9999 -9999 -9999 -9999 -9999 -9999 -9999 -9999 -9999 -9999 -9999 -9999 -9999 -9999 -9999 -9999 -9999 -9999 -9999 -9999 -9999 -9999 -9999 -9999 -9999 -9999 -9999 -9999 -9999 -9999 -9999 -9999 -9999 -9999 -9999 -9999 -9999 -9999 -9999 -9999 -9999 -9999 -9999 -9999 -9999 -9999 -9999 -9999 -9999 -9999 -9999 -9999 -9999 -9999 -9999 -9999 -9999 -9999 -9999 -9999 -9999 -9999 -9999 -9999 -9999 65 28 -9999 -9999 -9999 -9999 -9999 -9999 -9999 -9999 -9999 -9999 -9999 -9999 -9999 -9999 -9999 -9999 -9999 -9999 -9999 -9999 -9999 -9999 -9999 -9999 -9999 -9999 -9999 -9999 -9999 5 6 9 7 10 11 15 17 17 21 28 27 34 39 26 15 2 2 2 2 2 2 2 2 2 2 2 2 39 101 2 2 2 2 -9999
-9999 -9999 -9999 -9999 -9999 -9999 -9999 -9999 -9999 -9999 -9999 -9999 -9999 -9999 -9999 -9999 -9999 -9999 -9999 -9999 -9999 -9999 -9999 -9999 -9999 -9999 -9999 -9999 -9999 -9999 -9999 -9999 -9999 -9999 -9999 -9999 -9999 -9999 -9999 -9999 -9999 -9999 -9999 -9999 -9999 -9999 -9999 -9999 -9999 -9999 -9999 -9999 -9999 -9999 -9999 -9999 -9999 -9999 -9999 -9999 -9999 -9999 -9999 -9999 -9999 -9999 -9999 -9999 -9999 -9999 -9999 -9999 -9999 -9999 -9999 -9999 -9999 -9999 -9999 -9999 -9999 -9999 -9999 -9999 -9999 -9999 -9999 -9999 -9999 -9999 -9999 -9999 -9999 -9999 -9999 -9999 -9999 -9999 -9999 -9999 -9999 -9999 -9999 -9999 -9999 -9999 -9999 -9999 -9999 -9999 -9999 -9999 -9999 -9999 -9999 9 8 10 11 10 12 15 17 21 19 27 32 29 42 48 22 23 2 2 2 2 2 2 2 2 2 2 2 2 2 4 2 2 2 2 -9999
-9999 -9999 -9999 -9999 -9999 -9999 -9999 -9999 -9999 -9999 -9999 -9999 -9999 -9999 -9999 -9999 -9999 -9999 -9999 -9999 -9999 -9999 -9999 -9999 -9999 -9999 -9999 -9999 -9999 -9999 -9999 -9999 -9999 -9999 -9999 -9999 -9999 -9999 -9999 -9999 -9999 -9999 -9999 -9999 -9999 -9999 -9999 -9999 -9999 -9999 -9999 -9999 -9999 -9999 -9999 -9999 -9999 -9999 -9999 -9999 -9999 -9999 -9999 -9999 -9999 -9999 -9999 -9999 -9999 -9999 -9999 -9999 -9999 -9999 -9999 -9999 -9999 -9999 -9999 -9999 -9999 -9999 -9999 -9999 -9999 -9999 -9999 -9999 -9999 -9999 -9999 -9999 -9999 -9999 -9999 -9999 -9999 -9999 -9999 -9999 -9999 -9999 -9999 -9999 -9999 -9999 -9999 -9999 -9999 -9999 -9999 -9999 -9999 -9999 -9999 13 14 16 11 18 17 20 22 24 32 36 39 47 54 43 30 28 2 2 2 2 2 2 2 2 2 2 2 2 2 2 2 2 2 2 -9999
-9999 -9999 -9999 -9999 -9999 -9999 -9999 -9999 -9999 -9999 -9999 -9999 -9999 -9999 -9999 -9999 -9999 -9999 -9999 -9999 -9999 -9999 -9999 -9999 -9999 -9999 -9999 -9999 -9999 -9999 -9999 -9999 -9999 -9999 -9999 -9999 -9999 -9999 -9999 -9999 -9999 -9999 -9999 -9999 -9999 -9999 -9999 -9999 -9999 -9999 -9999 -9999 -9999 -9999 -9999 -9999 -9999 -9999 -9999 -9999 -9999 -9999 -9999 -9999 -9999 -9999 -9999 -9999 -9999 -9999 -9999 -9999 -9999 -9999 -9999 -9999 -9999 -9999 -9999 -9999 -9999 -9999 -9999 -9999 -9999 -9999 -9999 -9999 -9999 -9999 -9999 -9999 -9999 179 -9999 -9999 -9999 -9999 -9999 -9999 -9999 -9999 -9999 -9999 -9999 -9999 -9999 -9999 -9999 -9999 -9999 -9999 -9999 -9999 11 19 17 18 20 21 23 26 26 30 38 45 41 53 54 54 37 22 2 2 2 2 2 2 2 2 2 2 2 2 2 2 40 2 2 2 -9999
-9999 -9999 -9999 -9999 -9999 -9999 -9999 -9999 -9999 -9999 -9999 -9999 -9999 -9999 -9999 -9999 -9999 -9999 -9999 -9999 -9999 -9999 -9999 -9999 -9999 -9999 -9999 -9999 -9999 -9999 -9999 -9999 -9999 -9999 -9999 -9999 -9999 -9999 -9999 -9999 -9999 -9999 -9999 -9999 -9999 -9999 -9999 -9999 -9999 -9999 -9999 -9999 -9999 -9999 -9999 -9999 -9999 -9999 -9999 -9999 -9999 -9999 -9999 -9999 -9999 -9999 -9999 -9999 -9999 -9999 -9999 -9999 -9999 -9999 -9999 -9999 -9999 -9999 -9999 -9999 -9999 -9999 -9999 -9999 -9999 -9999 -9999 -9999 -9999 -9999 -9999 -9999 -9999 -9999 -9999 -9999 -9999 -9999 -9999 -9999 -9999 -9999 -9999 -9999 -9999 -9999 -9999 -9999 -9999 -9999 -9999 -9999 6 10 16 24 23 27 27 31 34 38 39 41 57 51 53 63 58 65 58 21 11 1 2 2 2 2 2 2 2 2 2 2 2 2 111 2 2 2 -9999
-9999 -9999 -9999 -9999 -9999 -9999 -9999 -9999 -9999 -9999 -9999 -9999 -9999 -9999 -9999 -9999 -9999 -9999 -9999 -9999 -9999 -9999 -9999 -9999 -9999 -9999 -9999 -9999 -9999 -9999 -9999 -9999 -9999 -9999 -9999 -9999 -9999 -9999 -9999 -9999 -9999 -9999 -9999 -9999 -9999 -9999 -9999 -9999 -9999 -9999 -9999 -9999 -9999 -9999 -9999 -9999 -9999 -9999 -9999 -9999 -9999 -9999 -9999 -9999 -9999 -9999 -9999 -9999 -9999 -9999 -9999 -9999 -9999 -9999 -9999 -9999 -9999 -9999 -9999 -9999 -9999 -9999 -9999 -9999 -9999 -9999 -9999 -9999 -9999 -9999 -9999 -9999 -9999 -9999 -9999 -9999 -9999 -9999 -9999 -9999 -9999 -9999 -9999 -9999 -9999 -9999 -9999 -9999 -9999 -9999 -9999 10 13 15 19 28 24 28 31 35 41 41 47 48 62 70 63 76 81 72 46 13 12 2 2 2 2 2 2 2 2 2 2 2 2 2 158 2 2 2 -9999
-9999 -9999 -9999 -9999 -9999 -9999 -9999 -9999 -9999 -9999 -9999 -9999 -9999 -9999 -9999 -9999 -9999 -9999 -9999 -9999 -9999 -9999 -9999 -9999 -9999 -9999 -9999 -9999 -9999 -9999 -9999 -9999 -9999 -9999 -9999 -9999 -9999 -9999 -9999 -9999 -9999 -9999 -9999 -9999 -9999 -9999 -9999 -9999 -9999 -9999 -9999 -9999 -9999 -9999 -9999 -9999 -9999 -9999 -9999 -9999 -9999 -9999 -9999 -9999 -9999 -9999 -9999 -9999 -9999 -9999 -9999 -9999 -9999 -9999 -9999 -9999 -9999 -9999 -9999 -9999 -9999 -9999 -9999 -9999 -9999 -9999 -9999 -9999 -9999 -9999 -9999 -9999 -9999 -9999 -9999 -9999 -9999 -9999 -9999 -9999 -9999 -9999 -9999 -9999 -9999 -9999 -9999 -9999 -9999 -9999 7 15 21 23 30 30 39 37 44 47 52 57 54 70 81 82 75 79 84 75 81 20 10 8 7 2 2 2 2 2 2 2 2 2 2 2 176 2 2 2 -9999
-9999 -9999 -9999 -9999 -9999 -9999 -9999 -9999 -9999 -9999 -9999 -9999 -9999 -9999 -9999 -9999 -9999 -9999 -9999 -9999 -9999 -9999 -9999 -9999 -9999 -9999 -9999 -9999 -9999 -9999 -9999 -9999 -9999 -9999 -9999 -9999 -9999 -9999 -9999 -9999 -9999 -9999 -9999 -9999 -9999 -9999 -9999 -9999 -9999 -9999 -9999 -9999 -9999 -9999 -9999 -9999 -9999 -9999 -9999 -9999 -9999 -9999 -9999 -9999 -9999 -9999 -9999 -9999 -9999 -9999 -9999 -9999 -9999 -9999 -9999 -9999 -9999 -9999 -9999 -9999 -9999 -9999 -9999 -9999 -9999 -9999 -9999 -9999 -9999 -9999 -9999 -9999 -9999 -9999 -9999 -9999 -9999 -9999 -9999 -9999 -9999 -9999 -9999 -9999 -9999 -9999 -9999 -9999 -9999 9 7 17 14 22 31 42 46 41 49 55 59 68 64 81 87 99 97 95 97 85 60 38 14 14 12 8 2 2 2 2 2 2 2 2 2 2 296 175 19 2 -9999
-9999 -9999 -9999 -9999 -9999 -9999 -9999 -9999 -9999 -9999 -9999 -9999 -9999 -9999 -9999 -9999 -9999 -9999 -9999 -9999 -9999 -9999 -9999 -9999 -9999 -9999 -9999 -9999 -9999 -9999 -9999 -9999 -9999 -9999 -9999 -9999 -9999 -9999 -9999 -9999 -9999 -9999 -9999 -9999 -9999 -9999 -9999 -9999 -9999 -9999 -9999 -9999 -9999 -9999 -9999 -9999 -9999 -9999 -9999 -9999 -9999 -9999 -9999 -9999 -9999 -9999 -9999 -9999 -9999 -9999 -9999 -9999 -9999 -9999 -9999 -9999 -9999 -9999 -9999 -9999 -9999 -9999 -9999 -9999 -9999 -9999 -9999 -9999 -9999 -9999 -9999 -9999 -9999 -9999 -9999 -9999 -9999 -9999 -9999 -9999 -9999 -9999 -9999 -9999 -9999 -9999 -9999 -9999 -9999 17 21 22 28 37 42 49 62 58 63 57 67 77 82 90 100 113 112 114 114 94 75 30 22 21 13 10 6 2 2 2 2 2 2 2 2 2 96 18 1 2 -9999
-9999 -9999 -9999 -9999 -9999 -9999 -9999 -9999 -9999 -9999 -9999 -9999 -9999 -9999 -9999 -9999 -9999 -9999 -9999 -9999 -9999 -9999 -9999 -9999 -9999 -9999 -9999 -9999 -9999 -9999 -9999 -9999 -9999 -9999 -9999 -9999 -9999 -9999 -9999 -9999 -9999 -9999 -9999 -9999 -9999 -9999 -9999 -9999 -9999 -9999 -9999 -9999 -9999 -9999 -9999 -9999 -9999 -9999 -9999 -9999 -9999 -9999 -9999 -9999 -9999 -9999 -9999 -9999 -9999 -9999 -9999 -9999 -9999 -9999 -9999 -9999 -9999 -9999 -9999 -9999 -9999 -9999 -9999 -9999 -9999 -9999 -9999 -9999 -9999 -9999 -9999 -9999 -9999 -9999 -9999 -9999 -9999 -9999 -9999 -9999 -9999 -9999 -9999 -9999 -9999 -9999 8 15 16 18 20 29 33 42 50 53 65 70 74 82 83 96 109 120 127 134 143 143 133 92 55 39 27 25 17 14 14 11 2 2 2 2 2 2 2 2 199 64 2 2 -9999
-9999 -9999 -9999 -9999 -9999 -9999 -9999 -9999 -9999 -9999 -9999 -9999 -9999 -9999 -9999 -9999 -9999 -9999 -9999 -9999 -9999 -9999 -9999 -9999 -9999 -9999 -9999 -9999 -9999 -9999 -9999 -9999 -9999 -9999 -9999 -9999 -9999 -9999 -9999 -9999 -9999 -9999 -9999 -9999 -9999 -9999 -9999 -9999 -9999 -9999 -9999 -9999 -9999 -9999 -9999 -9999 -9999 -9999 -9999 -9999 -9999 -9999 -9999 -9999 -9999 -9999 -9999 -9999 -9999 -9999 -9999 -9999 -9999 -9999 -9999 -9999 -9999 -9999 -9999 -9999 -9999 -9999 -9999 -9999 -9999 -9999 -9999 -9999 -9999 -9999 -9999 -9999 -9999 -9999 -9999 -9999 -9999 -9999 -9999 -9999 -9999 -9999 -9999 -9999 -9999 6 11 20 21 25 30 40 45 53 47 67 77 71 84 103 98 115 116 115 136 150 154 136 131 96 92 35 28 30 25 19 14 8 2 2 2 2 2 2 2 2 110 2 2 2 -9999
-9999 -9999 -9999 -9999 -9999 -9999 -9999 -9999 -9999 -9999 -9999 -9999 -9999 -9999 -9999 -9999 -9999 -9999 -9999 -9999 -9999 -9999 -9999 -9999 -9999 -9999 -9999 -9999 -9999 -9999 -9999 -9999 -9999 -9999 -9999 -9999 -9999 -9999 -9999 -9999 -9999 -9999 -9999 -9999 -9999 -9999 -9999 -9999 -9999 -9999 -9999 -9999 -9999 -9999 -9999 -9999 -9999 -9999 -9999 -9999 -9999 -9999 -9999 -9999 -9999 -9999 -9999 -9999 -9999 -9999 -9999 -9999 -9999 -9999 -9999 -9999 -9999 -9999 -9999 -9999 -9999 -9999 -9999 -9999 -9999 -9999 -9999 -9999 -9999 -9999 -9999 -9999 -9999 -9999 -9999 -9999 -9999 -9999 -9999 -9999 -9999 -9999 -9999 -9999 15 14 14 23 24 30 31 44 57 65 77 76 93 116 101 122 124 143 138 161 167 177 184 192 183 136 86 45 42 36 33 32 21 11 11 2 2 2 2 2 2 2 2 2 2 2 -9999
-9999 -9999 -9999 -9999 -9999 -9999 -9999 -9999 -9999 -9999 -9999 -9999 -9999 -9999 -9999 -9999 -9999 -9999 -9999 -9999 -9999 -9999 -9999 -9999 -9999 -9999 -9999 -9999 -9999 -9999 -9999 -9999 -9999 -9999 -9999 -9999 -9999 -9999 -9999 -9999 -9999 -9999 -9999 -9999 -9999 -9999 -9999 -9999 -9999 -9999 -9999 -9999 -9999 -9999 -9999 -9999 -9999 -9999 -9999 -9999 -9999 -9999 -9999 -9999 -9999 -9999 -9999 -9999 -9999 -9999 -9999 -9999 -9999 -9999 -9999 -9999 -9999 -9999 -9999 -9999 -9999 -9999 -9999 -9999 -9999 -9999 -9999 -9999 -9999 -9999 -9999 -9999 -9999 -9999 -9999 -9999 -9999 -9999 -9999 16 47 115 46 12 37 16 19 27 30 37 39 54 62 74 85 92 108 124 134 137 143 159 165 180 173 188 195 198 195 151 151 54 49 41 43 32 20 14 7 5 2 2 2 2 2 2 2 2 2 2 -9999
-9999 -9999 -9999 -9999 -9999 -9999 -9999 -9999 -9999 -9999 -9999 -9999 -9999 -9999 -9999 -9999 -9999 -9999 -9999 -9999 -9999 -9999 -9999 -9999 -9999 -9999 -9999 -9999 -9999 -9999 -9999 -9999 -9999 -9999 -9999 -9999 -9999 -9999 -9999 -9999 -9999 -9999 -9999 -9999 -9999 -9999 -9999 -9999 -9999 -9999 -9999 -9999 -9999 -9999 -9999 -9999 -9999 -9999 -9999 -9999 -9999 -9999 -9999 -9999 -9999 -9999 -9999 -9999 -9999 -9999 -9999 -9999 -9999 -9999 -9999 -9999 -9999 -9999 -9999 -9999 -9999 -9999 -9999 -9999 -9999 -9999 -9999 -9999 -9999 -9999 -9999 -9999 -9999 -9999 -9999 -9999 -9999 50 76 64 54 60 140 106 24 36 23 22 29 49 51 75 81 97 113 127 132 156 155 180 182 175 200 215 212 238 231 234 221 165 150 80 69 59 51 35 31 28 13 11 5 2 2 2 2 2 2 2 2 2 -9999
-9999 -9999 -9999 -9999 -9999 -9999 -9999 -9999 -9999 -9999 -9999 -9999 -9999 -9999 -9999 -9999 -9999 -9999 -9999 -9999 -9999 -9999 -9999 -9999 -9999 -9999 -9999 -9999 -9999 -9999 -9999 -9999 -9999 -9999 -9999 -9999 -9999 -9999 -9999 -9999 -9999 -9999 -9999 -9999 -9999 -9999 -9999 -9999 -9999 -9999 -9999 -9999 -9999 -9999 -9999 -9999 -9999 -9999 -9999 -9999 -9999 -9999 -9999 -9999 -9999 -9999 -9999 -9999 -9999 -9999 -9999 -9999 -9999 -9999 -9999 -9999 -9999 -9999 -9999 -9999 -9999 -9999 -9999 -9999 -9999 -9999 -9999 -9999 -9999 -9999 -9999 -9999 -9999 -9999 -9999 -9999 -9999 98 246 206 125 181 219 113 47 30 34 34 33 58 38 73 89 111 119 132 149 176 182 189 205 195 217 235 242 248 253 252 239 189 152 84 83 68 63 46 34 23 17 12 5 10 2 2 2 2 2 2 2 2 -9999
-9999 -9999 -9999 -9999 -9999 -9999 -9999 -9999 -9999 -9999 -9999 -9999 -9999 -9999 -9999 -9999 -9999 -9999 -9999 -9999 -9999 -9999 -9999 -9999 -9999 -9999 -9999 -9999 -9999 -9999 -9999 -9999 -9999 -9999 -9999 -9999 -9999 -9999 -9999 -9999 -9999 -9999 -9999 -9999 -9999 -9999 -9999 -9999 -9999 -9999 -9999 -9999 -9999 -9999 -9999 -9999 -9999 -9999 -9999 -9999 -9999 -9999 -9999 -9999 -9999 -9999 -9999 -9999 -9999 -9999 -9999 -9999 -9999 -9999 -9999 -9999 -9999 -9999 -9999 -9999 -9999 -9999 -9999 -9999 -9999 -9999 -9999 -9999 -9999 -9999 -9999 -9999 -9999 -9999 -9999 -9999 -9999 161 143 280 342 230 129 209 261 127 145 65 85 83 74 90 110 126 144 178 171 215 211 223 232 231 259 278 288 285 285 287 263 223 184 116 103 86 68 51 41 30 24 9 8 8 2 2 2 2 2 2 2 2 -9999
-9999 -9999 -9999 -9999 -9999 -9999 -9999 -9999 -9999 -9999 -9999 -9999 -9999 -9999 -9999 -9999 -9999 -9999 -9999 -9999 -9999 -9999 -9999 -9999 -9999 -9999 -9999 -9999 -9999 -9999 -9999 -9999 -9999 -9999 -9999 -9999 -9999 -9999 -9999 -9999 -9999 -9999 -9999 -9999 -9999 -9999 -9999 -9999 -9999 -9999 -9999 -9999 -9999 -9999 -9999 -9999 -9999 -9999 -9999 -9999 -9999 -9999 -9999 -9999 -9999 -9999 -9999 -9999 -9999 -9999 -9999 -9999 -9999 -9999 -9999 -9999 -9999 -9999 -9999 -9999 -9999 -9999 -9999 -9999 -9999 -9999 -9999 -9999 -9999 -9999 -9999 -9999 -9999 -9999 -9999 -9999 -9999 137 225 413 438 199 355 77 128 258 128 99 89 101 97 113 117 142 162 199 207 223 231 244 250 273 284 300 312 304 298 293 285 220 202 131 120 92 80 67 58 35 23 20 13 9 4 2 2 2 2 2 2 2 -9999
