ncols         129
nrows         138
xllcorner     163686.78298046
yllcorner     1581592.4146567
cellsize      1000
NODATA_value  -9999
-9999 -9999 0 0 17 15 5 0 0 11 13 38 33 38 72 183 481 788 738 813 885 1055 828 828 670 720 922 1118 1050 913 622 578 741 900 987 1128 1331 1175 -9999 -9999 -9999 -9999 -9999 -9999 -9999 -9999 -9999 -9999 -9999 -9999 -9999 -9999 -9999 -9999 -9999 -9999 -9999 -9999 -9999 -9999 -9999 -9999 -9999 -9999 -9999 -9999 -9999 -9999 -9999 -9999 -9999 -9999 -9999 -9999 -9999 -9999 -9999 -9999 -9999 -9999 -9999 -9999 -9999 -9999 -9999 -9999 -9999 -9999 -9999 -9999 -9999 -9999 -9999 -9999 -9999 -9999 -9999 -9999 -9999 -9999 -9999 -9999 -9999 -9999 -9999 -9999 -9999 -9999 -9999 -9999 -9999 -9999 -9999 -9999 -9999 -9999 -9999 -9999 -9999 -9999 -9999 -9999 -9999 -9999 -9999 -9999 -9999 -9999 -9999 
-9999 -9999 0 0 11 38 6 0 0 0 10 49 48 39 66 272 388 537 714 731 879 984 1010 965 793 1044 1066 1268 1053 684 628 522 526 905 1054 1251 1303 1127 817 601 674 354 485 670 810 727 713 659 379 303 337 515 426 224 175 125 102 107 115 134 162 201 187 147 129 100 87 79 85 84 70 63 61 66 66 52 40 39 41 39 37 37 36 32 31 28 31 32 28 25 24 21 23 20 19 21 21 21 21 24 25 23 25 27 30 28 29 31 28 33 31 31 33 35 37 36 37 40 43 36 33 38 42 41 40 39 42 45 46 
-9999 -9999 0 0 0 0 0 0 0 0 0 35 59 74 106 205 261 352 369 456 826 1057 1226 1101 1055 1186 1243 1536 1101 876 955 699 734 922 1111 1358 1172 1042 678 741 606 434 631 840 892 800 726 641 486 430 389 455 399 171 138 136 145 120 184 182 181 172 167 160 154 145 124 118 111 96 80 69 53 49 45 50 58 44 45 43 38 37 36 32 32 34 29 31 27 26 23 21 20 20 19 21 19 23 20 26 24 22 26 25 26 26 28 33 29 30 29 33 33 33 34 36 34 38 37 30 33 39 39 39 43 41 42 48 45 
-9999 -9999 0 0 0 0 0 0 0 6 8 12 40 58 95 216 305 220 471 596 853 1032 1023 1084 1125 1548 1726 1597 1557 1486 1291 1274 950 856 1228 1297 1142 1076 895 733 482 654 576 812 796 705 605 482 335 332 289 296 410 268 189 131 141 136 151 168 180 160 156 146 150 160 145 143 97 90 88 68 58 60 50 44 46 41 47 42 40 36 39 35 35 37 30 29 26 21 21 20 20 21 20 22 21 21 21 21 24 25 24 23 24 24 27 27 29 28 29 30 32 32 33 33 34 29 30 35 35 40 42 42 42 43 44 50 53 
-9999 -9999 0 0 9 49 -1 0 8 8 27 32 40 76 71 210 269 301 452 583 822 755 798 756 1118 1234 1508 1771 1639 1664 1614 1352 1076 974 976 1064 1278 1229 778 533 470 781 785 735 761 654 419 462 453 442 438 241 208 249 292 199 149 167 189 157 135 116 177 157 164 179 167 142 96 100 94 79 68 63 45 46 43 46 47 46 41 42 40 34 35 33 30 28 26 21 22 20 19 18 19 19 22 20 20 22 25 22 22 25 25 27 27 26 27 26 27 30 33 32 33 34 35 38 36 33 36 39 38 39 42 45 51 53 61 
-9999 -9999 0 0 37 0 0 0 0 11 10 14 36 121 106 118 194 155 309 241 351 371 475 1064 1272 1361 1441 1836 1736 1736 1558 1318 1003 1186 1349 1300 1212 1121 701 516 650 749 852 604 550 502 554 527 614 531 504 335 255 216 171 157 168 166 164 162 128 109 119 195 171 151 183 148 92 74 92 96 87 53 52 59 53 47 47 44 46 42 38 38 36 33 30 29 25 25 28 21 20 16 18 20 19 21 20 21 20 23 22 25 24 25 25 26 27 27 27 30 32 34 33 34 29 34 38 36 36 36 38 40 42 45 58 56 56 
-9999 -9999 0 0 30 43 13 28 58 29 28 77 97 105 94 115 181 269 293 338 457 564 624 677 859 1137 1434 1816 1549 1701 1530 1489 1219 1410 1430 1336 1023 774 726 567 798 936 870 728 838 863 702 720 495 558 520 427 377 384 407 213 139 176 161 168 119 100 106 109 109 104 130 108 100 77 84 81 67 55 68 56 52 50 47 42 43 39 38 35 38 33 32 27 25 26 20 21 21 18 17 20 19 19 19 20 22 22 21 23 23 27 29 26 28 27 28 25 31 30 33 31 30 32 39 36 36 36 35 38 44 50 53 57 61 
-9999 -9999 0 0 10 23 10 11 32 31 94 85 75 76 85 135 164 174 337 445 664 805 811 952 1030 1443 1718 1495 1269 1499 1776 1628 1455 1444 1403 1034 992 889 784 711 911 968 900 927 849 768 740 603 600 499 344 384 426 190 147 139 125 150 114 125 113 100 94 88 101 93 93 108 100 100 63 77 68 62 68 53 49 57 48 46 41 39 38 35 33 33 31 28 26 25 22 21 17 20 17 19 19 20 19 21 20 21 22 21 20 24 23 24 27 25 29 31 31 32 33 31 32 35 31 34 32 36 37 46 50 49 58 59 63 
-9999 -9999 0 0 0 10 14 7 10 17 12 33 43 48 64 82 131 259 412 483 763 761 682 1131 1189 1138 1194 1144 1223 1488 1664 1675 1540 1510 1426 1168 885 700 945 884 881 939 800 762 827 696 654 763 549 476 330 232 267 169 193 133 121 110 105 100 99 94 89 88 89 86 88 89 141 126 97 73 72 54 57 56 70 69 52 49 46 42 41 38 37 32 27 27 23 23 23 21 18 19 18 19 18 20 19 19 20 19 23 24 26 24 21 23 25 28 27 28 27 28 31 30 31 30 33 33 33 36 38 43 44 51 56 60 -9999 
-9999 -9999 0 0 0 10 10 9 42 46 19 21 28 80 102 96 131 231 528 603 608 583 621 874 952 1003 889 798 925 1217 1626 1752 1612 1491 1312 956 1221 1242 1039 985 748 638 694 654 584 614 446 453 407 334 277 341 291 145 134 119 111 113 108 103 98 117 133 113 99 81 115 91 68 74 66 54 59 68 82 59 78 65 51 48 47 44 43 37 34 31 30 26 24 24 26 20 19 17 22 18 17 20 18 21 17 20 21 23 21 22 24 24 27 25 26 27 28 25 28 28 33 31 31 30 33 37 38 44 47 49 57 64 -9999 
-9999 -9999 3 8 12 11 31 22 22 28 56 65 72 92 99 127 125 230 409 452 402 345 418 725 663 614 569 711 1203 1228 1586 1473 1711 1258 1198 1217 1104 1015 801 774 598 618 553 848 811 532 433 471 499 422 372 215 203 149 449 153 190 267 113 114 207 276 138 109 83 80 78 75 66 76 93 69 63 81 75 60 73 73 53 52 49 45 40 38 37 33 28 27 25 24 20 24 18 16 17 18 19 16 19 19 25 20 21 22 21 18 20 25 23 28 26 28 28 27 26 33 27 28 28 30 33 37 36 44 47 49 52 59 -9999 
-9999 -9999 7 9 13 12 24 7 8 22 41 45 72 81 86 99 103 166 205 234 468 415 702 697 795 1085 1133 1252 1264 1239 1335 1113 1283 1304 1243 1105 928 861 699 600 439 477 465 659 870 691 499 372 308 325 434 303 197 218 541 171 370 427 118 121 278 263 213 116 108 106 80 91 77 104 90 88 89 71 68 65 60 59 58 52 53 52 41 39 37 36 32 29 29 23 22 19 18 17 20 19 18 19 20 18 19 19 20 20 23 22 22 22 23 24 24 28 29 28 31 36 28 26 29 33 34 34 38 43 45 46 51 58 -9999 
-9999 -9999 0 5 5 31 17 13 32 26 32 44 60 70 79 83 104 276 351 389 677 687 680 949 997 1019 1046 1142 1003 1049 1060 813 1040 1337 1156 906 818 721 496 656 644 407 336 417 637 450 489 521 324 343 293 254 210 232 252 259 273 178 150 187 283 255 178 167 137 97 88 90 86 116 101 93 99 67 69 64 62 62 59 54 55 49 59 37 40 37 29 27 22 22 21 21 19 17 19 16 18 16 17 17 16 20 21 22 23 22 19 20 21 20 23 23 27 30 30 26 29 28 29 34 35 40 40 45 48 47 60 56 -9999 
-9999 -9999 0 0 5 9 8 17 27 43 36 37 30 38 48 63 73 287 426 523 746 737 956 953 992 731 804 783 813 707 723 1052 1344 1240 1135 886 856 1000 629 807 566 618 508 358 502 360 346 405 329 218 325 225 266 188 274 444 351 297 330 278 311 264 238 220 158 105 98 123 110 110 100 97 98 72 73 65 64 62 58 53 54 45 38 36 32 36 30 26 24 23 21 19 18 18 18 15 16 18 17 19 18 20 20 20 21 21 22 19 19 18 19 27 26 25 29 32 28 27 32 33 29 40 39 44 46 54 50 52 -9999 
-9999 -9999 0 0 5 5 5 6 7 7 28 18 28 36 39 56 66 201 226 273 489 421 664 593 540 387 407 812 916 937 1188 1323 1539 1448 1263 1007 1106 825 782 744 831 857 645 353 337 258 241 267 224 217 221 185 173 337 417 471 536 406 371 320 275 259 223 154 139 100 105 92 94 94 83 84 85 75 74 66 64 63 55 54 58 54 47 36 34 32 27 26 23 23 21 19 17 17 15 16 17 20 16 16 18 16 20 19 18 19 21 19 22 19 24 24 26 28 25 30 26 27 29 35 35 37 41 42 44 48 52 57 -9999 
-9999 -9999 0 0 0 5 7 14 7 9 20 14 27 60 85 62 110 99 91 151 304 355 542 487 426 551 596 1022 960 1027 903 1198 1468 1337 1351 1161 977 965 952 846 980 948 697 434 364 446 370 305 419 280 216 188 207 278 398 514 524 505 377 352 285 287 233 165 157 98 98 95 90 90 87 79 75 76 75 66 64 61 54 57 51 50 45 37 36 30 31 28 25 25 21 18 19 16 18 19 19 15 16 17 15 16 13 16 16 20 15 19 22 22 21 24 24 29 28 26 28 30 29 30 33 37 41 41 43 47 53 58 -9999 
-9999 -9999 0 0 0 0 0 5 12 10 33 40 48 55 76 85 89 103 183 268 170 218 317 385 380 664 581 779 757 738 858 1108 1220 1062 1257 1212 1106 986 997 871 959 878 754 430 316 454 363 315 351 309 406 191 225 389 583 568 515 450 420 309 270 274 200 139 115 104 100 97 94 98 116 99 75 70 70 65 66 62 54 54 50 45 46 40 37 33 31 27 25 24 20 17 17 15 18 17 21 16 15 15 18 16 16 16 17 18 20 21 24 19 26 23 24 27 27 28 23 28 33 32 32 36 37 42 47 51 62 62 -9999 
-9999 -9999 0 0 0 0 0 1 8 10 6 8 40 34 42 79 61 97 226 347 706 726 542 428 482 740 763 872 847 749 1020 1030 1140 937 721 709 860 814 982 991 1128 946 603 431 444 466 432 380 538 538 290 251 216 407 558 519 486 408 313 306 287 256 193 115 114 108 104 100 99 119 96 128 75 72 68 64 62 57 58 51 46 41 43 40 38 32 29 28 26 19 19 18 19 17 18 18 14 15 15 14 16 14 14 14 18 17 20 18 20 23 22 22 24 25 29 24 26 25 29 26 32 36 37 47 48 52 62 70 -9999 
-9999 -9999 0 0 0 0 0 0 0 7 6 15 34 49 52 63 26 153 297 429 376 404 388 483 494 926 1061 1218 1106 1106 1213 1347 1365 1331 1069 541 782 764 871 787 940 982 777 608 684 566 664 646 513 455 465 430 279 251 459 535 493 485 267 356 146 144 129 121 115 109 105 102 120 111 102 95 82 72 67 64 65 59 54 51 47 49 43 37 38 31 28 29 25 24 19 21 16 17 19 16 20 14 14 14 15 15 12 14 16 17 21 22 19 20 21 24 26 29 24 26 26 27 29 31 32 36 34 40 44 45 56 52 -9999 
-9999 -9999 0 0 0 0 0 0 0 0 13 7 28 33 33 25 23 85 45 186 127 216 462 276 501 1074 1211 1166 1293 1361 1527 1490 1545 1359 906 458 676 527 743 716 744 840 899 857 822 754 780 513 465 423 418 373 235 448 500 582 495 321 195 156 141 128 130 124 120 114 104 116 106 110 96 78 72 64 67 60 55 54 50 52 46 49 51 37 34 31 29 27 24 23 22 18 18 14 18 16 18 13 12 13 12 13 15 16 16 21 20 24 18 22 22 23 21 26 26 23 26 28 31 33 32 34 34 47 49 56 46 55 -9999 
-9999 -9999 0 0 0 0 0 0 0 0 10 13 18 23 34 16 15 35 107 218 420 377 326 510 590 822 733 575 825 997 748 773 1308 1487 1177 881 550 278 497 619 443 443 757 837 897 843 676 571 447 441 286 366 258 308 466 525 427 223 255 180 152 156 146 128 126 109 107 126 104 95 75 75 74 70 67 60 55 53 49 49 44 43 41 36 32 33 31 30 25 23 20 18 16 17 16 15 17 11 12 13 13 14 13 16 19 19 19 20 20 21 21 23 24 25 25 22 27 28 26 27 30 31 35 38 45 47 63 56 -9999 
-9999 -9999 0 0 0 0 0 0 0 0 1 20 8 18 21 14 12 38 75 154 175 214 304 304 484 656 791 412 747 792 569 702 974 1305 1266 1048 895 268 511 591 379 415 600 555 659 643 691 720 683 584 461 351 385 277 434 397 514 344 291 210 143 141 137 121 130 124 117 157 115 85 79 60 65 57 55 59 54 53 50 48 44 41 40 36 35 32 31 26 21 23 19 19 17 19 17 15 15 14 13 12 14 13 13 15 17 18 22 22 17 18 21 25 15 27 22 25 25 30 29 33 36 42 42 38 41 47 45 50 -9999 
-9999 -9999 0 0 0 0 0 0 0 0 10 9 6 8 11 15 14 17 30 85 181 167 308 508 611 398 276 277 373 466 543 684 952 1166 1292 780 813 306 516 537 347 358 559 425 461 683 604 618 465 425 372 294 298 271 313 409 531 196 162 188 147 148 133 138 144 127 126 159 109 74 69 77 69 57 53 52 52 47 46 46 44 42 42 35 34 31 30 27 25 22 20 20 19 18 17 13 15 15 14 13 14 13 13 13 15 20 19 18 18 19 22 25 22 26 23 24 26 30 29 32 37 36 39 40 34 38 44 39 -9999 
-9999 -9999 0 0 0 0 0 0 0 0 0 10 12 7 10 10 10 14 16 81 80 62 305 302 368 154 149 411 522 525 515 456 827 779 895 445 563 194 501 530 238 351 390 301 396 494 470 460 375 455 355 325 372 403 340 463 407 173 168 160 153 168 128 212 141 136 137 132 90 80 86 73 68 60 53 52 51 51 46 45 46 44 40 40 34 32 29 30 25 27 21 19 19 19 17 16 15 19 13 14 12 12 14 14 16 17 21 18 19 18 21 22 22 17 22 24 20 25 25 26 34 39 45 48 40 42 46 53 -9999 
-9999 -9999 0 0 0 0 0 0 0 0 0 0 6 12 8 11 14 11 18 103 37 56 116 159 112 180 356 429 407 304 392 550 468 650 835 248 217 322 432 332 201 222 348 314 328 469 416 371 325 318 305 393 546 406 338 190 186 185 184 174 169 153 273 166 164 194 269 97 89 79 90 73 71 60 55 61 53 51 48 47 46 42 42 37 38 33 30 29 26 25 23 20 20 15 17 16 16 17 14 13 13 13 14 13 20 17 16 18 22 26 23 24 19 19 21 22 21 21 24 27 32 36 38 47 57 60 52 56 -9999 
-9999 -9999 0 0 0 0 0 0 0 0 0 0 0 8 6 10 14 15 16 19 21 22 54 231 198 314 322 117 125 286 368 481 350 539 591 446 194 368 420 203 192 232 264 337 353 509 462 384 466 338 284 418 492 356 319 197 221 197 184 187 195 157 217 154 196 249 137 144 97 181 82 82 66 69 68 59 58 54 53 52 49 45 42 36 38 34 33 30 27 26 24 20 20 17 17 16 14 15 14 14 12 13 12 13 15 16 22 21 17 26 16 20 17 21 20 20 27 26 23 26 33 38 40 47 46 69 54 64 -9999 
-9999 -9999 0 0 0 0 0 0 0 0 0 0 0 1 8 9 10 11 12 19 25 27 78 163 162 119 115 135 176 239 308 265 152 155 457 311 112 284 233 128 252 282 259 287 385 542 488 418 383 325 311 426 533 381 251 243 212 288 184 206 283 169 285 161 247 218 198 133 153 128 94 117 77 76 74 57 56 56 58 52 47 46 43 41 37 34 31 31 27 25 22 20 22 16 14 15 15 12 13 14 14 14 13 13 15 17 19 22 21 17 21 19 21 24 23 22 22 20 19 24 31 32 32 40 41 63 55 59 -9999 
-9999 -9999 0 0 0 0 0 0 0 0 0 0 0 0 15 7 10 14 16 23 18 27 27 160 41 39 95 182 169 131 249 311 104 94 286 280 101 131 125 198 231 350 329 276 294 386 521 474 382 316 346 430 454 251 334 239 249 199 426 393 234 288 205 236 299 345 178 217 155 135 113 95 98 90 74 64 59 62 57 54 50 48 44 43 39 33 29 32 26 27 16 19 20 18 13 12 14 14 13 13 13 13 12 14 14 20 18 15 20 23 18 19 18 19 21 19 20 20 22 25 26 29 34 48 45 60 69 60 -9999 
-9999 -9999 0 0 0 0 0 0 0 0 0 0 0 0 0 10 6 13 12 22 20 22 27 29 35 41 44 45 96 151 188 253 116 78 108 83 99 158 220 246 284 431 423 452 324 453 534 382 341 337 320 441 390 362 265 251 339 214 461 400 240 332 195 266 374 230 181 218 199 180 101 173 181 90 69 73 67 65 64 57 54 52 45 43 42 33 34 29 28 25 21 18 20 18 16 10 13 13 14 13 11 13 12 12 15 19 18 20 19 17 15 16 16 18 19 19 19 21 21 24 24 28 36 48 62 66 65 71 -9999 
-9999 0 0 0 0 0 0 0 0 0 0 0 0 0 0 0 9 13 16 17 19 22 26 31 36 41 44 83 106 65 87 184 83 80 80 79 146 215 319 367 240 203 341 398 268 347 281 352 407 397 372 358 360 348 294 265 339 291 506 354 348 338 270 318 381 259 308 257 159 150 116 217 96 79 80 77 75 71 64 61 54 52 46 42 41 37 36 30 27 26 24 21 19 15 14 14 13 12 11 11 13 13 14 13 12 17 16 19 19 15 16 15 16 18 16 18 19 18 20 20 27 30 34 53 51 54 63 56 -9999 
-9999 0 0 0 0 0 0 0 0 0 0 0 0 0 0 0 4 73 29 15 19 18 29 31 37 45 46 52 53 61 67 66 82 82 91 118 92 278 263 437 363 197 226 343 256 304 288 347 479 372 363 381 342 306 302 343 506 380 573 390 286 228 332 397 332 363 350 282 236 171 202 197 168 106 88 85 84 76 73 65 58 53 44 44 41 34 35 28 28 24 23 20 17 15 15 15 13 13 10 12 14 12 12 15 13 14 16 18 21 16 12 16 16 17 18 17 19 17 17 21 25 28 37 48 41 59 48 49 -9999 
-9999 0 0 0 0 0 0 0 0 0 0 0 0 0 0 0 18 203 326 67 117 67 378 127 350 300 97 66 62 70 74 79 92 93 107 159 119 129 190 222 201 188 277 235 242 296 286 338 407 428 384 424 440 312 315 457 476 415 455 429 244 343 344 444 304 382 363 230 234 169 104 98 90 91 90 91 91 79 75 72 61 55 46 45 40 37 36 29 29 26 21 21 16 13 15 13 10 11 12 11 12 11 11 13 14 15 17 18 16 15 15 14 15 16 18 16 16 15 16 21 26 24 28 34 42 48 43 43 -9999 
-9999 0 0 0 0 0 0 0 0 0 0 0 0 0 0 1 17 216 361 143 141 172 556 398 573 272 306 147 99 74 78 85 105 112 102 108 116 131 193 165 173 235 265 281 297 288 317 377 414 446 578 595 388 357 492 550 396 490 367 400 402 439 441 466 457 373 362 273 273 199 120 100 91 147 98 93 90 76 73 69 59 56 50 45 44 37 34 30 28 24 21 19 17 15 13 11 11 11 13 10 12 14 15 17 13 17 17 12 11 13 14 14 12 14 14 15 15 17 17 22 25 32 29 28 34 42 40 49 -9999 
-9999 0 0 0 0 0 0 0 0 0 0 0 0 0 0 0 31 178 356 276 165 169 539 525 712 448 497 92 341 83 78 86 107 111 120 107 137 159 150 185 216 194 270 276 329 345 349 396 425 569 547 675 389 412 498 502 366 598 360 498 447 483 348 300 196 208 143 188 189 256 190 118 103 126 117 103 95 82 82 73 69 60 50 48 45 37 32 27 25 25 22 20 19 14 14 13 11 11 11 10 12 8 16 17 16 17 14 12 12 11 13 11 12 14 13 16 16 17 18 22 28 28 24 27 33 32 32 39 -9999 
-9999 0 0 0 0 0 0 0 0 0 0 0 0 0 0 0 13 59 188 219 254 275 143 213 333 585 505 344 554 466 358 158 122 112 125 131 142 134 157 189 207 224 241 267 359 381 346 423 440 504 561 716 484 449 710 461 575 634 365 482 444 413 210 251 272 223 175 159 153 120 109 155 134 121 121 109 96 87 84 76 68 66 52 49 45 38 36 31 28 38 37 71 127 134 148 71 33 13 13 11 13 13 11 15 14 9 10 12 11 12 13 13 12 13 14 15 16 18 21 22 28 24 25 33 33 38 40 41 -9999 
-9999 0 0 0 0 0 0 0 0 0 0 0 0 0 0 0 12 13 76 198 188 115 166 84 429 461 593 646 634 611 414 307 337 123 129 138 142 160 168 205 227 230 278 303 369 391 409 478 537 536 555 614 536 481 483 562 698 597 438 470 319 242 373 308 383 271 239 285 244 212 168 151 134 129 123 108 102 87 85 78 73 63 54 50 51 39 39 30 31 49 98 124 196 260 259 154 81 13 12 14 15 14 11 14 11 12 10 11 11 9 10 9 11 12 13 14 14 16 18 20 24 24 28 38 50 57 54 53 -9999 
-9999 0 0 0 0 0 0 0 0 0 0 0 0 0 0 0 1 10 26 205 70 29 30 59 99 348 400 673 800 569 499 561 236 140 257 145 153 177 183 215 242 242 275 325 401 433 468 476 534 616 609 655 554 670 554 767 620 555 503 309 279 336 331 407 300 465 338 202 190 173 164 168 151 135 126 110 109 97 88 82 70 67 57 52 48 42 37 33 39 65 134 198 394 535 527 238 138 20 13 13 12 17 10 11 11 11 8 9 9 9 11 12 12 11 13 13 16 16 18 18 21 26 31 37 40 57 54 58 -9999 
-9999 0 0 0 0 0 0 0 0 0 0 0 0 0 0 0 0 8 9 112 54 20 29 185 177 254 257 417 552 775 615 348 213 279 353 552 365 178 192 216 229 247 301 352 441 415 470 576 582 637 664 645 707 802 622 850 703 668 431 317 514 454 441 375 377 374 334 221 199 188 176 164 148 142 123 115 112 95 89 85 69 67 56 55 49 43 40 36 34 61 170 249 527 724 841 404 205 41 12 11 11 9 9 10 10 11 10 10 8 8 7 9 14 13 11 14 15 16 18 17 22 25 29 44 43 41 53 70 -9999 
-9999 0 0 0 0 0 0 0 0 0 0 0 0 0 0 0 0 11 7 13 17 20 60 278 165 219 308 358 510 769 568 399 491 365 409 391 170 250 197 242 270 294 337 373 475 535 546 592 649 682 759 761 858 863 821 879 770 611 612 441 464 513 444 536 319 356 303 244 216 192 178 178 153 144 125 120 111 102 93 85 73 69 60 52 49 43 43 35 34 33 174 246 724 902 855 356 195 26 7 9 13 10 9 10 9 11 10 8 7 9 10 10 11 11 11 13 15 15 17 19 28 27 33 29 41 48 65 55 -9999 
-9999 0 0 0 0 0 0 0 0 0 0 0 0 0 0 0 0 0 6 9 9 55 216 148 301 200 406 415 664 1005 879 598 691 558 552 471 272 375 199 233 257 288 339 383 501 555 592 623 667 726 803 781 841 882 1006 793 673 739 572 610 615 549 591 540 469 289 307 273 223 217 200 190 165 152 133 125 118 104 94 79 74 69 62 59 55 45 42 35 35 29 115 204 471 646 612 250 112 14 15 13 12 9 10 9 8 9 9 9 6 7 7 9 7 11 10 13 11 18 17 17 23 24 26 29 35 53 57 52 -9999 
-9999 0 0 0 0 0 0 0 0 0 0 0 0 0 0 0 0 0 8 28 9 77 129 45 84 272 224 235 282 584 829 976 930 1133 688 374 199 205 208 239 271 336 324 382 483 489 564 653 675 793 820 826 949 885 975 838 945 711 661 651 722 757 531 457 326 366 420 326 291 216 203 191 167 153 132 120 115 102 92 80 80 73 60 59 49 45 42 41 32 26 28 99 170 173 189 101 41 10 13 11 9 8 8 7 9 9 9 10 10 9 9 8 11 11 11 15 14 15 16 22 20 29 37 39 41 42 40 41 -9999 
-9999 0 0 0 0 0 0 0 0 0 0 0 0 0 0 0 0 0 7 14 12 23 22 37 128 277 466 440 572 575 575 1107 1229 1130 633 300 198 277 279 241 263 325 374 404 452 498 644 721 733 848 978 986 1034 1336 1142 1091 966 874 863 765 626 577 447 463 405 385 347 283 270 221 198 183 160 147 131 127 117 103 94 78 77 73 61 57 47 44 42 38 31 29 27 40 48 82 62 11 11 12 10 14 7 8 7 8 6 4 10 8 11 8 9 11 10 12 11 12 14 17 21 25 30 31 35 40 42 32 47 44 -9999 
-9999 0 0 0 0 0 0 0 0 0 0 0 0 0 0 0 0 0 1 37 45 64 68 388 266 144 273 436 634 878 771 651 1105 857 416 281 205 327 230 244 283 323 340 436 466 535 652 710 797 858 917 1098 1219 1156 1221 965 917 976 880 629 577 603 502 486 423 384 364 294 278 227 209 191 159 141 120 116 111 96 94 76 72 65 57 51 43 41 38 32 33 24 23 21 18 14 57 8 9 14 9 13 9 6 9 8 7 8 9 9 9 9 8 9 10 11 14 11 13 16 18 19 20 20 27 32 30 29 31 48 -9999 
-9999 0 0 0 0 0 0 0 0 0 0 0 0 0 0 0 0 0 0 12 55 119 35 71 312 423 258 436 614 617 668 729 837 930 676 743 394 574 416 249 265 341 382 452 533 587 701 751 816 1005 1247 931 942 1162 963 857 806 782 667 672 640 588 527 472 382 395 357 292 271 227 203 184 155 148 132 116 112 97 90 76 67 63 53 51 40 40 37 31 29 25 22 20 16 13 13 9 11 12 9 12 10 12 8 12 7 8 7 10 9 7 9 8 11 11 15 15 12 15 17 19 25 28 23 25 23 31 39 56 -9999 
-9999 0 0 0 0 0 0 0 0 0 0 0 0 0 0 0 0 0 8 14 8 63 98 86 179 171 406 410 457 378 352 705 830 678 805 668 686 384 249 283 327 345 343 395 551 621 683 711 750 983 1029 973 1157 1191 909 876 724 958 973 589 811 611 498 413 391 357 292 258 224 197 199 186 160 147 129 115 111 99 89 77 72 65 58 53 41 38 33 30 30 20 21 19 17 13 9 8 8 13 11 10 6 9 8 9 6 6 6 9 8 8 10 10 9 10 13 17 12 17 18 22 24 29 37 27 36 30 38 67 -9999 
-9999 0 0 0 0 0 0 0 0 0 0 0 0 0 0 0 0 0 0 7 9 68 113 242 249 336 244 280 334 531 541 672 508 573 239 412 435 289 265 290 283 399 396 420 530 582 692 750 791 903 1008 1347 1264 1129 1148 928 851 1036 929 785 735 522 380 408 429 370 319 272 248 187 196 181 154 142 122 112 107 91 85 76 68 63 55 51 42 36 34 28 24 19 18 14 16 9 8 7 6 10 11 10 9 6 9 7 7 8 9 8 8 9 10 11 10 11 13 12 17 17 26 21 33 36 44 33 34 33 45 68 -9999 
-9999 0 0 0 0 0 0 0 0 0 0 0 0 0 0 0 0 0 0 8 7 12 12 68 58 67 218 401 284 507 703 611 246 393 214 288 426 391 297 299 299 347 381 446 532 576 668 708 679 822 820 874 942 1158 1080 1082 996 1045 932 735 823 638 632 629 479 359 310 227 223 205 190 168 149 139 117 108 98 86 80 72 68 60 51 48 37 39 35 25 24 18 17 15 11 10 6 7 7 7 11 10 8 8 11 7 6 8 7 6 8 7 11 8 11 11 10 12 17 16 16 20 28 35 52 45 46 52 53 41 -9999 
-9999 0 0 0 0 0 0 0 0 0 0 0 0 0 0 0 0 0 0 11 8 13 19 13 16 15 73 239 308 209 302 264 324 93 127 191 354 361 324 364 305 357 410 434 460 553 624 644 766 743 781 842 876 994 897 992 1007 1085 1017 800 754 428 383 294 350 325 203 162 167 170 164 159 121 124 110 97 88 73 70 68 66 59 55 50 42 38 34 26 22 17 20 17 12 10 6 6 6 7 10 8 6 5 8 8 7 6 6 6 8 8 11 10 10 11 11 12 15 16 20 21 22 25 43 36 51 61 67 46 -9999 
-9999 0 0 0 0 0 0 0 0 0 0 0 0 0 0 0 0 0 0 1 64 62 202 122 32 25 23 25 29 42 130 154 53 169 160 95 255 164 188 485 322 401 410 450 469 538 502 665 726 711 716 934 1039 1225 769 755 863 935 764 742 675 607 535 514 259 237 252 201 184 123 152 143 133 120 98 94 84 69 68 62 59 57 48 44 38 34 31 23 18 14 11 12 10 7 11 5 7 8 11 4 3 6 10 13 5 8 7 8 12 8 8 10 11 13 11 12 15 17 16 18 27 32 33 30 35 65 46 65 -9999 
-9999 0 0 0 0 0 0 0 0 0 0 0 0 0 0 0 0 0 0 0 13 15 138 189 35 23 79 191 129 73 40 47 94 192 354 216 115 137 171 524 349 329 340 510 455 456 474 423 540 624 643 1077 1091 1381 855 790 429 637 561 566 767 442 536 460 400 355 322 269 184 148 114 125 129 118 93 89 85 68 58 60 56 51 46 44 38 33 29 25 18 12 13 7 9 8 3 10 11 13 10 8 8 7 13 9 5 7 3 7 3 9 9 8 9 10 11 15 17 21 26 37 21 22 30 32 41 48 53 73 -9999 
-9999 0 0 0 0 0 0 0 0 0 0 0 0 0 0 0 0 0 0 0 11 78 24 314 298 228 38 175 300 212 127 183 236 422 512 283 122 155 276 321 234 261 297 394 431 395 498 425 463 568 711 891 1108 1087 788 723 546 380 493 523 620 464 463 305 343 241 184 196 127 107 104 97 100 98 95 92 81 70 60 52 47 47 42 35 35 32 30 21 17 11 10 8 7 8 4 6 6 9 3 10 9 8 8 9 7 8 7 8 9 10 8 10 11 8 12 16 22 28 30 33 22 33 28 30 35 63 81 88 -9999 
-9999 0 0 0 0 0 0 0 0 0 0 0 0 0 0 0 0 0 0 0 0 11 13 20 93 162 158 83 61 78 89 136 306 541 695 390 266 221 169 228 202 279 271 316 390 338 342 383 535 609 720 1078 1107 1003 708 606 412 340 382 301 518 443 431 261 342 371 191 159 102 88 100 80 77 91 89 83 71 63 55 50 47 43 41 38 29 28 22 19 15 11 7 6 7 7 12 10 10 12 9 12 9 9 6 8 10 7 7 7 9 9 9 10 12 9 16 24 17 23 38 39 24 26 34 45 55 54 84 73 -9999 
-9999 0 0 0 0 0 0 0 0 0 0 0 0 0 0 0 0 0 0 0 0 13 10 10 14 112 155 231 211 182 244 270 201 269 470 431 389 350 247 197 216 291 311 326 295 283 633 524 760 851 852 1008 905 781 723 708 746 755 552 443 357 468 456 373 197 213 216 238 189 93 78 64 78 83 78 75 67 59 58 48 41 40 38 33 32 24 22 16 14 7 5 7 10 10 7 10 8 7 5 9 11 9 6 9 9 6 9 9 10 9 10 12 14 12 13 17 18 22 23 27 40 38 31 40 54 46 67 108 -9999 
-9999 0 0 0 0 0 0 0 0 0 0 0 0 0 0 0 0 0 0 0 0 14 10 11 13 15 20 139 37 173 224 384 244 375 361 345 397 408 314 212 213 233 303 296 266 262 321 463 733 609 605 994 744 619 551 531 550 517 515 440 618 221 341 342 241 167 173 75 124 53 60 75 73 69 64 58 50 50 48 43 38 31 30 31 22 24 19 13 10 9 3 10 9 6 9 7 6 6 8 9 10 10 8 10 9 8 9 10 8 8 11 12 13 17 21 14 17 24 26 43 43 46 34 46 49 61 77 116 -9999 
-9999 0 0 0 0 0 0 0 0 0 0 0 0 0 0 0 0 0 0 0 5 12 12 15 13 15 20 24 22 65 200 650 520 368 456 531 371 281 137 145 174 198 233 204 232 224 373 343 419 664 826 957 916 665 441 417 416 421 371 329 358 184 405 312 158 128 93 80 59 71 69 71 65 64 57 55 44 44 41 45 36 29 26 25 22 18 16 11 9 8 7 8 9 6 5 13 5 5 6 10 9 7 10 8 8 8 10 11 9 12 13 13 15 18 24 20 16 21 27 33 44 49 46 56 56 74 71 96 -9999 
-9999 0 0 0 0 0 0 0 0 0 0 0 0 0 0 0 0 0 0 0 10 10 7 15 18 18 21 22 23 47 148 607 645 549 501 549 264 217 109 133 153 212 226 203 206 311 545 717 781 868 789 980 1007 589 478 472 293 203 269 367 151 228 114 186 153 130 101 85 77 60 62 59 58 59 54 50 43 37 35 37 35 28 25 22 19 16 12 11 7 4 10 6 5 7 6 9 6 6 9 7 8 8 9 6 8 8 11 9 8 14 18 16 15 17 23 21 26 30 35 39 50 45 63 45 53 57 62 96 -9999 
-9999 0 0 0 0 0 0 0 0 0 0 0 0 0 0 0 0 0 0 0 10 11 20 14 15 21 26 27 31 29 190 329 589 637 626 582 340 227 105 140 162 194 199 192 207 194 584 424 761 975 1008 940 1086 481 489 381 356 403 444 172 166 137 198 90 141 128 99 72 69 51 36 46 46 45 42 41 32 29 23 29 29 25 19 19 11 10 15 5 7 5 4 6 3 7 11 7 7 8 8 8 7 6 7 8 7 7 8 13 10 16 13 15 19 18 21 20 21 37 29 36 47 43 50 41 72 86 62 75 -9999 
-9999 0 0 0 0 0 0 0 0 0 0 0 0 0 0 0 0 0 0 0 10 12 15 19 18 21 23 27 33 34 103 215 283 163 393 277 78 93 113 104 129 158 156 167 167 154 217 296 443 494 494 808 866 479 478 499 533 472 209 168 272 196 210 159 125 90 85 57 54 48 34 42 42 41 37 38 30 24 22 33 28 21 19 16 12 13 8 10 6 6 5 6 4 6 7 8 7 10 8 7 7 8 10 8 11 8 9 8 12 13 13 12 14 13 17 22 23 37 26 29 31 29 38 62 83 89 88 81 -9999 
-9999 0 0 0 0 0 0 0 0 0 0 0 0 0 0 0 0 0 0 0 8 11 15 16 17 25 29 27 32 37 38 163 93 66 185 173 81 87 96 108 127 141 146 151 152 144 285 216 313 362 486 775 675 508 409 429 409 301 353 284 303 145 83 130 59 85 59 48 41 41 33 35 31 33 30 31 28 23 19 16 14 17 17 15 14 11 10 7 7 8 5 4 4 6 5 3 5 9 7 4 6 6 8 8 10 11 12 14 12 13 8 14 14 16 21 21 36 37 33 41 51 56 57 43 79 96 84 78 -9999 
-9999 0 0 0 0 0 0 0 0 0 0 0 0 0 0 0 0 0 0 0 9 8 16 19 17 23 26 26 33 36 44 50 50 58 65 71 80 87 98 110 118 134 134 143 138 130 136 191 223 356 518 708 649 681 474 549 495 378 278 287 187 101 101 75 57 55 63 52 44 35 33 32 31 29 23 20 19 17 14 10 11 8 12 11 12 10 7 10 5 8 5 4 6 4 7 8 10 9 6 5 8 8 6 6 9 10 10 15 15 12 7 13 13 27 33 34 30 38 48 31 34 40 40 62 86 89 60 73 -9999 
-9999 0 0 0 0 0 0 0 0 0 0 0 0 0 0 0 0 0 0 0 6 9 10 13 17 22 25 31 37 43 41 46 52 61 66 73 78 82 98 108 110 121 153 129 128 128 180 240 422 310 505 521 791 850 844 584 504 374 260 142 148 102 70 74 54 49 56 49 37 31 29 32 27 23 21 18 18 12 10 9 9 10 8 10 10 9 9 6 5 7 5 3 8 4 7 5 5 4 7 8 7 6 6 8 12 10 11 10 14 13 14 15 15 14 23 31 31 36 53 49 42 62 63 68 66 94 62 66 -9999 
-9999 0 0 0 0 0 0 0 0 0 0 0 0 0 0 0 0 0 0 0 5 11 10 19 17 23 25 27 34 36 43 43 47 59 64 74 80 87 103 104 188 323 269 216 129 129 144 183 269 359 372 495 543 722 628 517 414 424 214 227 144 83 53 42 41 45 48 43 31 28 26 25 22 20 19 16 12 11 11 7 6 7 6 6 7 11 7 6 7 3 6 3 5 4 9 5 8 9 12 8 6 7 8 10 8 10 12 12 14 13 19 15 17 19 29 24 28 31 39 51 57 57 64 79 82 113 81 94 -9999 
-9999 0 0 0 0 0 0 0 0 0 0 0 0 0 0 0 0 0 0 0 9 9 12 14 16 24 22 25 28 35 39 43 49 55 63 65 70 76 144 192 313 341 360 234 191 143 129 183 246 248 254 353 651 588 551 475 376 294 184 122 107 77 42 37 37 34 45 42 28 26 24 21 20 15 14 16 12 11 7 2 9 5 8 7 5 6 6 6 4 5 5 4 5 8 2 7 4 6 9 5 6 7 8 6 9 10 12 14 15 14 16 16 21 20 20 23 34 43 44 46 51 59 56 67 83 86 68 91 -9999 
-9999 0 0 0 0 0 0 0 0 0 0 0 0 0 0 0 0 0 0 0 11 15 13 11 14 24 22 26 32 35 40 43 43 53 55 66 65 69 80 107 136 239 337 674 550 480 145 231 199 392 310 539 744 460 323 216 382 312 147 112 116 71 47 33 34 33 42 37 25 22 20 20 19 16 14 13 10 8 8 4 6 8 4 4 5 7 4 8 5 6 5 3 4 6 4 8 6 6 14 9 7 8 10 10 10 14 15 15 13 20 17 19 23 23 22 21 26 32 33 55 51 30 32 37 45 63 67 93 -9999 
-9999 0 0 0 0 0 0 0 0 0 0 0 0 0 0 0 0 0 0 0 12 13 10 14 14 17 21 24 30 32 38 44 45 50 52 60 65 64 81 63 92 157 248 516 620 418 180 237 221 385 398 579 707 413 294 260 174 210 180 154 147 95 40 26 26 30 24 28 20 18 18 17 19 17 14 15 7 7 3 1 -10 3 4 10 8 7 3 5 4 5 7 4 4 7 6 8 5 5 10 7 5 9 8 11 10 12 15 15 17 18 20 21 10 15 10 9 19 31 26 43 36 27 29 35 39 61 86 102 -9999 
-9999 0 0 0 0 0 0 0 0 0 0 0 0 0 0 0 0 0 0 0 13 11 16 19 13 15 21 23 29 31 33 37 43 47 55 57 58 58 207 168 332 181 277 507 690 317 241 284 310 413 470 666 652 406 433 533 218 220 190 204 133 101 94 26 26 27 23 22 20 18 18 16 14 15 11 8 8 6 6 4 4 4 7 1 5 5 5 3 6 2 0 4 2 4 5 8 6 7 7 5 6 7 8 10 11 13 14 13 17 19 22 23 22 19 21 23 30 19 20 25 31 20 31 23 42 55 64 65 -9999 
-9999 0 0 0 0 0 0 0 0 0 0 0 0 0 0 0 0 0 0 0 15 15 184 16 119 24 18 22 30 32 40 38 39 50 52 56 60 56 190 193 197 250 471 668 587 432 495 582 587 594 464 516 545 758 693 511 310 308 276 187 209 131 71 29 24 21 22 22 19 18 16 15 15 10 10 8 9 4 6 2 5 5 8 4 3 5 1 3 5 4 6 1 4 5 7 6 7 6 3 2 5 7 10 10 15 13 12 16 14 20 20 24 18 19 20 32 35 45 26 30 25 26 40 46 40 43 47 88 -9999 
-9999 0 0 0 0 0 0 0 0 0 0 0 0 0 0 0 0 1 0 0 26 232 252 119 122 137 121 21 22 30 46 38 41 52 45 51 52 46 68 74 179 203 277 458 353 309 291 506 721 761 416 433 400 691 539 503 312 238 289 234 192 63 90 23 24 24 20 23 22 21 15 14 11 9 8 5 3 5 9 4 4 5 0 5 2 -4 5 6 3 2 -2 3 7 4 8 7 7 6 6 5 6 6 7 7 16 11 14 15 16 24 10 20 18 17 18 21 35 36 34 42 28 29 58 66 35 72 44 98 -9999 
-9999 0 0 0 0 0 0 0 0 0 0 0 0 0 1 9 0 0 0 0 18 18 190 326 573 259 123 65 33 52 30 35 38 42 40 47 103 43 46 80 90 75 113 154 142 236 527 696 516 480 320 375 469 727 633 392 271 196 250 216 204 82 65 22 24 22 21 20 17 15 14 14 10 11 8 6 6 7 3 6 1 5 5 3 4 1 3 4 4 6 3 5 7 6 7 6 7 6 2 6 4 9 8 6 8 12 11 14 13 10 16 16 15 22 29 23 34 37 49 48 31 56 60 62 41 36 54 86 -9999 
-9999 0 0 0 0 0 0 0 0 0 0 0 0 0 0 0 0 0 0 0 317 196 119 343 558 552 257 120 24 29 34 38 53 41 39 54 115 107 64 101 70 64 64 117 82 513 476 531 388 366 186 356 509 564 560 449 338 272 97 91 57 57 41 19 19 21 20 17 16 15 14 12 12 9 6 6 5 7 3 7 5 2 3 3 3 4 4 4 3 1 3 11 4 5 9 9 6 8 6 5 6 7 9 11 9 11 12 11 12 9 15 16 16 19 34 31 46 38 43 71 86 81 66 58 48 30 40 39 -9999 
-9999 0 0 0 0 0 0 0 0 0 0 0 0 0 0 0 0 0 0 20 283 435 375 462 529 766 795 435 86 30 37 27 47 92 35 36 41 148 21 46 18 86 120 117 120 331 319 574 316 465 281 367 378 351 392 582 303 207 141 92 29 25 23 20 16 18 17 17 16 17 15 11 8 5 4 5 5 6 6 7 5 4 -2 3 8 7 3 5 3 3 5 -11 2 3 6 5 5 8 6 6 6 12 15 13 11 12 13 13 12 15 22 13 12 23 22 22 39 40 48 71 77 71 78 78 53 62 54 40 -9999 
-9999 0 0 0 0 0 0 0 0 0 0 0 0 0 0 0 0 0 0 0 285 157 268 192 380 725 569 223 101 121 259 79 54 72 61 249 195 123 4 10 45 22 67 75 293 142 250 360 157 343 340 328 307 297 279 382 274 206 147 77 26 18 21 18 16 17 15 14 17 14 16 11 7 5 7 3 5 5 4 6 1 2 5 2 6 3 3 4 3 4 3 7 6 5 5 5 12 8 6 7 1 6 7 10 13 11 19 25 15 14 12 10 15 18 25 22 47 45 60 66 81 66 65 80 59 69 62 50 -9999 
-9999 0 0 0 0 0 0 0 0 0 0 0 0 0 0 0 0 0 0 0 1 15 86 207 386 797 461 263 365 213 180 81 185 52 108 84 65 100 7 28 45 16 19 76 176 143 253 284 147 97 450 471 438 161 150 172 172 167 151 128 34 16 14 12 16 14 13 13 13 12 10 10 9 3 4 1 6 1 5 5 1 6 4 6 9 7 4 2 4 6 0 6 5 4 4 5 4 6 9 6 6 5 8 7 11 10 18 16 13 11 13 10 16 13 20 22 34 44 49 48 55 59 77 91 95 102 73 90 -9999 
-9999 0 0 0 0 0 0 0 0 0 0 0 0 0 0 0 0 0 0 0 92 213 174 293 343 370 726 571 249 315 65 38 35 17 29 15 0 0 0 16 34 123 15 118 291 188 269 87 64 161 428 512 444 251 177 193 172 102 42 42 20 11 9 15 16 13 12 13 12 13 11 4 5 -1 6 4 2 -2 2 0 5 3 6 3 21 3 6 3 3 4 5 3 1 8 5 5 2 3 7 5 7 11 10 9 10 11 12 12 9 10 13 12 10 13 18 19 34 67 43 66 53 57 63 80 86 78 124 103 -9999 
-9999 0 0 0 0 0 0 0 0 0 0 0 0 0 0 0 0 0 0 0 0 0 21 225 118 336 587 667 399 169 51 38 57 32 9 0 0 0 0 8 8 11 60 189 129 197 46 105 113 90 221 274 254 178 109 166 87 106 49 23 15 14 11 13 10 11 11 13 12 13 12 8 5 6 7 2 2 5 3 2 2 -2 5 3 3 -1 4 3 5 5 4 4 3 6 3 6 6 4 4 6 5 7 11 11 7 9 12 9 7 8 11 9 8 9 21 25 48 44 39 36 42 50 53 50 69 80 95 110 -9999 
-9999 0 0 0 0 0 0 0 0 0 0 0 0 0 0 0 0 0 0 0 0 97 15 37 106 365 617 746 465 161 101 193 166 116 118 37 0 0 31 0 10 23 67 225 98 77 14 149 111 90 125 178 121 104 78 74 100 74 21 20 17 14 13 13 11 10 10 7 7 7 3 5 7 4 3 2 3 1 4 -1 5 0 2 1 2 -2 3 5 4 0 3 5 6 8 4 5 8 4 4 6 4 10 8 10 13 12 5 6 3 7 13 10 7 9 12 15 29 26 40 31 41 44 37 41 74 78 93 100 -9999 
-9999 0 0 0 0 0 0 0 0 0 0 0 0 0 0 0 0 0 0 0 0 0 69 178 473 250 180 351 457 390 169 354 471 548 408 68 0 0 0 0 0 0 75 203 11 17 46 27 126 123 157 128 106 91 45 25 26 83 27 19 13 15 13 11 11 11 9 8 9 6 4 4 10 1 6 1 2 0 2 3 1 6 5 2 4 3 5 3 6 3 0 6 4 0 5 3 5 7 5 7 5 11 8 9 10 9 8 8 6 4 12 8 10 11 13 22 34 33 46 27 36 37 39 52 60 68 103 99 -9999 
-9999 0 0 0 0 0 0 0 0 0 0 0 0 0 0 0 0 0 0 0 0 0 140 315 443 85 66 182 394 412 258 404 514 600 446 189 25 0 0 0 0 0 45 8 10 19 58 156 158 169 129 132 152 155 103 127 50 22 18 42 11 39 28 14 21 6 10 9 6 4 8 4 2 2 3 5 2 1 3 3 8 5 9 5 2 1 2 4 5 3 0 5 1 5 5 3 3 6 3 5 5 6 4 6 10 12 11 7 5 10 5 7 7 6 10 20 26 16 20 34 24 25 30 38 70 60 63 61 -9999 
-9999 0 0 0 0 0 0 0 0 0 0 0 0 0 0 0 0 0 0 0 0 0 129 157 83 11 24 134 315 342 279 481 362 323 302 157 43 0 0 0 0 0 19 10 9 11 32 210 217 149 117 144 209 143 114 81 30 42 64 76 24 78 54 22 28 22 18 10 9 6 6 6 3 3 7 -1 8 2 1 3 2 4 2 1 0 6 2 2 3 4 5 2 3 4 5 5 4 3 6 3 4 7 8 6 5 5 10 9 5 5 5 7 8 5 12 26 14 16 22 32 20 47 44 58 36 40 51 61 -9999 
-9999 0 0 0 0 0 0 0 0 0 0 0 0 0 0 0 0 0 0 0 0 0 0 0 0 43 232 382 414 520 326 247 166 124 61 9 6 0 0 0 0 0 7 7 12 11 6 118 101 204 127 146 376 161 131 67 90 62 131 66 56 102 80 46 43 35 24 16 11 7 5 7 7 2 6 2 5 2 4 6 1 3 3 1 4 4 5 4 5 3 5 5 3 3 3 4 3 4 6 6 2 1 5 6 5 5 15 12 8 9 5 5 6 4 5 16 9 12 21 22 21 35 35 51 38 39 42 59 -9999 
-9999 0 0 0 0 0 0 0 0 0 0 0 0 0 0 0 0 0 0 0 0 0 0 0 119 289 389 712 795 673 529 435 212 141 139 80 0 0 0 0 0 0 0 0 0 26 11 89 35 80 195 153 282 209 176 102 160 188 173 141 163 96 77 68 57 47 36 26 16 9 6 4 3 1 0 5 0 -2 1 1 1 6 3 3 2 0 3 3 3 5 6 5 2 4 3 6 3 0 6 6 2 6 3 3 4 3 13 8 7 6 4 8 5 7 8 8 13 12 15 29 35 25 30 38 40 43 52 77 -9999 
-9999 0 0 0 0 0 0 0 0 0 0 0 0 0 0 0 0 0 0 0 0 0 0 97 199 471 360 514 529 532 682 609 216 207 63 34 0 0 0 0 0 0 0 0 0 10 53 68 61 85 200 199 266 255 191 156 158 178 165 145 143 138 104 105 88 52 59 42 29 19 7 8 7 0 0 0 0 0 0 0 5 5 1 4 3 4 5 2 5 6 3 3 10 4 5 4 11 3 4 3 4 2 3 4 5 4 13 8 5 1 4 2 7 14 9 11 12 21 24 39 45 50 44 48 65 58 57 75 -9999 
-9999 0 0 0 0 0 0 0 0 0 0 0 0 0 0 0 0 0 0 0 0 0 184 317 196 47 24 118 105 398 627 847 384 330 258 0 0 0 0 0 0 2 63 44 6 7 32 113 121 146 154 233 261 286 173 216 179 270 144 188 215 165 126 128 94 80 57 55 30 20 13 11 4 0 0 0 0 0 0 0 0 0 1 5 4 3 4 0 5 2 2 2 6 5 2 2 3 1 2 4 3 5 3 3 3 6 4 6 5 4 6 3 3 5 4 6 11 19 24 31 38 35 38 42 65 78 55 65 -9999 
-9999 0 0 0 0 0 0 0 0 0 0 0 0 0 0 0 0 0 0 0 0 0 0 0 18 0 0 47 192 325 401 673 648 363 15 0 0 0 0 0 0 0 0 0 10 115 114 43 124 211 227 213 293 285 233 317 304 322 305 301 200 222 212 161 139 88 68 54 30 22 12 7 4 3 0 0 0 0 0 0 0 0 1 3 4 5 1 3 2 2 4 5 4 3 3 2 0 5 5 4 4 2 4 4 1 0 0 2 6 3 2 5 4 8 5 12 21 27 24 28 26 32 34 38 49 46 54 78 -9999 
-9999 0 0 0 0 0 0 0 0 0 0 0 0 0 0 0 0 0 0 0 0 0 0 0 3 0 0 9 153 212 257 429 512 289 67 0 0 3 0 0 0 0 48 20 92 73 191 125 78 167 350 317 361 318 306 396 301 284 319 289 260 250 200 172 143 108 86 55 32 20 9 5 3 0 0 0 0 0 0 0 0 0 0 0 3 6 5 1 2 6 6 2 4 3 5 3 4 7 2 4 3 5 1 2 2 3 3 3 6 5 5 0 0 3 7 8 8 11 21 24 24 28 25 37 46 56 53 47 -9999 
-9999 0 0 0 0 0 0 0 0 0 0 0 0 0 0 0 0 0 0 0 0 0 0 0 156 0 11 14 29 78 123 287 358 222 0 0 0 0 0 44 55 64 107 97 132 208 250 229 233 115 264 340 428 383 383 413 397 417 372 357 271 275 206 153 166 106 97 74 39 20 8 7 4 0 0 0 0 0 0 0 0 0 0 5 5 0 0 0 5 6 5 3 7 4 1 3 5 2 3 2 2 2 4 4 6 2 3 6 4 1 4 1 3 4 6 8 9 10 15 18 21 47 28 33 48 48 84 71 -9999 
-9999 0 0 0 0 0 0 0 0 0 0 0 0 0 0 0 0 0 0 0 0 0 0 0 0 0 0 71 100 84 231 158 222 164 0 0 0 0 0 0 36 82 120 144 182 220 208 155 290 271 239 286 475 667 657 749 615 508 405 437 341 246 276 234 199 130 79 62 43 21 10 8 5 0 0 0 0 0 0 0 0 0 0 0 0 0 0 0 0 0 0 0 0 10 4 4 3 2 5 8 4 2 4 0 3 2 5 3 2 3 3 2 1 1 5 6 8 15 15 21 20 35 42 57 46 50 75 63 -9999 
-9999 0 0 0 0 0 0 0 0 0 0 0 0 0 0 0 0 0 0 0 0 0 0 0 0 0 0 0 0 1 196 43 118 0 0 0 0 0 0 0 0 65 105 118 42 25 62 133 165 202 366 359 534 723 849 879 713 496 494 461 397 340 271 236 198 146 90 71 44 37 11 7 3 0 0 0 0 0 0 0 0 0 0 0 0 0 0 0 0 0 0 0 0 0 0 0 0 0 0 0 0 0 0 0 4 2 6 3 4 3 4 4 7 1 2 3 12 12 19 24 21 30 37 50 60 46 74 84 -9999 
-9999 0 0 0 0 0 0 0 0 0 0 0 0 0 0 0 0 0 0 0 0 0 0 0 0 0 0 0 0 0 0 0 0 0 0 0 0 0 0 0 0 53 4 0 60 118 160 285 270 269 187 337 433 469 550 722 819 625 473 465 450 368 258 245 208 119 146 81 56 36 6 7 3 0 0 0 0 0 0 0 0 0 0 0 0 0 0 0 0 0 0 0 0 0 0 0 0 0 0 0 0 0 0 0 1 4 -3 1 3 5 0 1 7 6 6 3 6 7 6 6 19 29 43 62 72 60 76 85 -9999 
-9999 0 0 0 0 0 0 0 0 0 0 0 0 0 0 0 0 0 0 0 0 0 0 0 0 0 0 0 0 0 0 0 0 0 0 0 0 0 0 0 5 40 65 65 100 85 156 163 120 180 179 290 391 439 531 641 752 752 777 626 464 485 304 283 243 182 153 92 54 16 8 2 0 0 0 0 0 0 0 0 0 0 0 0 0 0 0 0 0 0 0 0 0 0 0 0 0 0 0 0 0 0 0 0 0 1 1 -6 1 3 5 2 5 4 7 4 8 4 14 15 19 25 38 53 59 57 74 83 -9999 
-9999 0 0 0 0 0 0 0 0 0 0 0 0 0 0 0 0 0 0 0 0 0 0 0 0 0 0 0 0 0 0 0 0 0 0 0 0 0 0 0 0 12 97 150 157 139 118 91 200 300 294 381 488 557 623 713 901 881 946 876 547 584 388 277 224 174 135 73 40 15 7 8 0 0 0 0 0 0 0 0 0 0 0 0 0 0 0 0 0 0 0 0 0 0 0 0 0 0 0 0 0 0 0 0 0 0 3 2 1 2 2 3 1 4 4 1 4 8 5 12 23 26 33 47 55 49 58 68 -9999 
-9999 0 0 0 0 0 0 0 0 0 0 0 0 0 0 0 0 0 0 0 0 0 0 0 0 0 0 0 0 0 0 0 0 0 0 0 0 0 0 0 20 43 36 61 34 94 142 198 282 393 569 651 575 434 535 802 982 867 945 791 633 636 456 385 250 135 96 64 44 23 12 8 0 0 0 0 0 0 0 0 0 0 0 0 0 0 0 0 0 0 0 0 0 0 0 0 0 0 0 0 0 0 0 0 0 0 0 0 4 3 0 1 1 -5 5 2 3 4 15 15 21 27 36 32 30 38 50 50 -9999 
-9999 0 0 0 0 0 0 0 0 0 0 0 0 0 0 0 0 0 0 0 0 0 0 0 0 0 0 0 0 0 0 0 0 0 0 0 0 0 0 0 6 28 47 52 69 52 88 162 186 296 369 609 666 514 621 743 928 837 978 798 529 442 428 467 464 170 107 62 41 29 10 7 0 5 0 0 0 0 0 0 0 0 0 0 0 0 0 0 0 0 0 0 0 0 0 0 0 0 0 0 0 0 0 0 0 0 0 0 0 0 0 4 2 -14 2 3 3 8 7 15 12 26 35 31 39 39 44 46 -9999 
-9999 0 0 0 0 0 0 0 0 0 0 0 0 0 0 0 0 0 0 0 0 0 0 0 0 0 0 0 0 0 0 0 0 0 0 0 0 0 0 0 6 20 32 24 118 105 134 247 328 456 679 849 755 631 636 743 843 828 817 628 454 505 399 488 488 191 120 61 42 25 11 9 6 0 1 0 0 0 0 0 0 0 0 0 0 0 0 0 0 0 0 0 0 0 0 0 0 0 0 0 0 0 0 0 0 0 0 0 0 0 0 2 1 -1 1 5 4 9 9 10 15 28 29 32 36 47 46 54 -9999 
-9999 0 0 0 0 0 0 0 0 0 0 0 0 0 0 0 0 0 0 0 0 0 0 0 0 0 0 0 0 0 0 0 0 0 0 0 0 0 0 0 0 0 25 7 25 51 90 191 149 355 367 514 747 947 866 740 718 537 528 573 624 619 280 363 386 188 131 71 48 30 13 6 8 6 2 0 0 0 0 0 0 0 0 0 0 0 0 0 0 0 0 0 0 0 0 0 0 0 0 0 0 0 0 0 0 0 0 0 0 0 0 0 0 2 1 5 6 13 19 27 24 10 21 39 42 44 61 50 -9999 
-9999 0 0 0 0 0 0 0 0 0 0 0 0 0 0 0 0 0 0 0 0 0 0 0 0 0 0 0 0 0 0 0 0 0 0 0 0 0 0 0 0 0 10 5 48 72 99 109 124 249 348 467 550 810 842 689 559 495 538 495 472 376 319 227 225 153 117 68 47 36 14 11 8 6 1 0 0 0 0 0 0 0 0 0 0 0 0 0 0 0 0 0 0 0 0 0 0 0 0 0 0 0 0 0 0 0 0 0 0 0 0 0 0 0 7 5 1 8 11 23 30 16 23 34 36 43 49 49 -9999 
-9999 0 0 0 0 0 0 0 0 0 0 0 0 0 0 0 0 0 0 0 0 0 0 0 0 0 0 0 0 0 0 0 0 0 0 0 0 0 0 0 0 0 0 8 61 11 16 71 120 254 256 343 500 674 560 613 531 471 475 309 373 356 271 193 135 149 111 59 48 34 8 11 12 8 6 0 0 0 0 0 0 0 0 0 0 0 0 0 0 0 0 0 0 0 0 0 0 0 0 0 0 0 0 0 0 0 0 0 0 0 0 0 0 5 4 7 7 6 6 11 23 33 29 30 38 39 42 50 -9999 
-9999 0 0 0 0 0 0 0 0 0 0 0 0 0 0 0 0 0 0 0 0 0 0 0 0 0 0 0 0 0 0 0 0 0 0 0 0 0 0 0 0 0 0 0 0 5 35 179 146 104 146 188 307 302 347 468 302 374 351 284 299 261 203 219 158 104 110 62 48 34 13 11 8 7 6 0 0 0 0 0 0 0 0 0 0 0 0 0 0 0 0 0 0 0 0 0 0 0 0 0 0 0 0 0 0 0 0 0 0 0 0 0 0 0 0 7 7 6 21 21 19 23 26 25 37 42 63 64 -9999 
-9999 0 0 0 0 0 0 0 0 0 0 0 0 0 0 0 0 0 0 0 0 0 0 0 0 0 0 0 0 0 0 0 0 0 0 0 0 0 0 0 0 0 0 0 0 8 48 103 109 60 100 158 202 208 254 369 229 320 352 272 252 242 178 164 133 108 90 47 38 32 15 16 11 11 8 5 0 0 0 0 0 0 0 0 0 0 0 0 0 0 0 0 0 0 0 0 0 0 0 0 0 0 0 0 0 0 0 0 0 0 0 0 0 0 0 4 5 5 17 25 24 17 26 30 35 37 50 54 -9999 
-9999 0 0 0 0 0 0 0 0 0 0 0 0 0 0 0 0 0 0 0 0 0 0 0 0 0 0 0 0 0 0 0 0 0 0 0 0 0 0 0 0 0 0 0 0 0 11 60 81 113 120 125 232 126 168 241 188 241 242 241 233 164 150 135 116 96 73 48 33 27 18 15 15 10 9 8 0 0 0 0 0 0 0 0 0 0 0 0 0 0 0 0 0 0 0 0 0 0 0 0 0 0 0 0 0 0 0 0 0 0 0 0 0 0 0 7 5 8 12 19 21 19 20 30 35 33 50 58 -9999 
0 0 0 0 0 0 0 0 0 0 0 0 0 0 0 0 0 0 0 0 0 0 0 0 0 0 0 0 0 0 0 0 0 0 0 0 0 0 0 0 0 0 0 0 0 0 16 0 0 0 8 94 56 39 158 98 72 140 140 181 177 171 124 121 77 111 83 31 32 20 20 16 14 14 7 5 6 0 0 0 0 0 0 0 0 0 0 0 0 0 0 0 0 0 0 0 0 0 0 0 0 0 0 0 0 0 0 0 0 0 0 0 0 0 0 0 4 5 6 16 18 14 10 25 35 39 48 50 -9999 
0 0 0 0 0 0 0 0 0 0 0 0 0 0 0 0 0 0 0 0 0 0 0 0 0 0 0 0 0 0 0 0 0 0 0 0 0 0 0 0 0 0 0 0 0 0 0 0 0 0 0 39 0 7 60 48 68 99 145 145 160 156 127 144 128 162 120 136 154 37 54 46 25 12 9 10 5 0 0 0 0 0 0 0 0 0 0 0 0 0 0 0 0 0 0 0 0 0 0 0 0 0 0 0 0 0 0 0 0 0 0 0 0 0 0 0 0 1 7 9 13 19 17 21 24 32 39 45 -9999 
0 0 0 0 0 0 0 0 0 0 0 0 0 0 0 0 0 0 0 0 0 0 0 0 0 0 0 0 0 0 0 0 0 0 0 0 0 0 0 0 0 0 0 0 0 0 0 0 0 0 0 0 0 0 36 32 50 58 103 140 164 157 156 186 177 186 102 287 303 59 93 73 43 36 22 7 3 0 0 0 0 0 0 0 0 0 0 0 0 0 0 0 0 0 0 0 0 0 0 0 0 0 0 0 0 0 0 0 0 0 0 0 0 0 0 0 3 6 8 8 10 16 12 25 26 35 48 51 -9999 
0 0 0 0 0 0 0 0 0 0 0 0 0 0 0 0 0 0 0 0 0 0 0 0 0 0 0 0 0 0 0 0 0 0 0 0 0 0 0 0 0 0 0 0 0 0 0 0 0 0 0 0 0 0 6 20 26 84 134 128 190 221 255 246 265 184 271 466 395 184 147 136 71 51 24 7 4 0 0 0 0 0 0 0 0 0 0 0 0 0 0 0 0 0 0 0 0 0 0 0 0 0 0 0 0 0 0 0 0 0 0 0 0 0 0 7 0 8 14 5 8 12 10 11 20 21 38 48 -9999 
0 0 0 0 0 0 0 0 0 0 0 0 0 0 0 0 0 0 0 0 0 0 0 0 0 0 0 0 0 0 0 0 0 0 0 0 0 0 0 0 0 0 0 0 0 0 0 0 0 0 0 0 0 0 0 12 30 107 130 181 195 243 285 182 295 242 277 325 287 218 156 163 112 77 24 46 10 0 0 0 0 0 0 0 0 0 0 0 0 0 0 0 0 0 0 0 0 0 0 0 0 0 0 0 0 0 0 0 0 0 0 0 0 0 0 1 1 9 13 7 5 6 9 9 18 30 36 41 -9999 
0 0 0 0 0 0 0 0 0 0 0 0 0 0 0 0 0 0 0 0 0 0 0 0 0 0 0 0 0 0 0 0 0 0 0 0 0 0 0 0 0 0 0 0 0 0 0 0 0 0 0 0 0 0 0 1 43 18 39 99 187 280 257 319 360 364 344 359 285 220 212 160 108 122 85 56 23 0 0 0 0 0 0 0 0 0 0 0 0 0 0 0 0 0 0 0 0 0 0 0 0 0 0 0 0 0 0 0 0 0 0 0 0 0 0 0 0 6 8 10 6 4 5 7 14 32 33 43 -9999 
0 0 0 0 0 0 0 0 0 0 0 0 0 0 0 0 0 0 0 0 0 0 0 0 0 0 0 0 0 0 0 0 0 0 0 0 0 0 0 0 0 0 0 0 0 0 0 0 0 0 0 0 0 0 0 16 58 149 181 254 296 326 374 263 362 407 350 383 364 264 262 211 178 161 104 72 43 0 0 0 0 0 0 0 0 0 0 0 0 0 0 0 0 0 0 0 0 0 0 0 0 0 0 0 0 0 0 0 0 0 0 0 0 0 0 0 1 0 7 11 5 5 12 7 10 22 41 55 -9999 
0 0 0 0 0 0 0 0 0 0 0 0 0 0 0 0 0 0 0 0 0 0 0 0 0 0 0 0 0 0 0 0 0 0 0 0 0 0 0 0 0 0 0 0 0 0 0 0 0 0 0 0 0 0 26 60 93 155 179 265 312 341 433 313 446 518 537 458 412 304 310 223 208 128 88 72 48 0 0 0 0 0 0 0 0 0 0 0 0 0 0 0 0 0 0 0 0 0 0 0 0 0 0 0 0 0 0 0 0 0 0 0 0 0 0 0 0 0 0 9 6 5 6 8 3 24 34 40 -9999 
0 0 0 0 0 0 0 0 0 0 0 0 0 0 0 0 0 0 0 0 0 0 0 0 0 0 0 0 0 0 0 0 0 0 0 0 0 0 0 0 0 0 0 0 0 0 0 0 0 0 0 0 0 0 0 7 57 61 94 172 222 295 503 468 576 577 616 544 431 319 315 238 220 183 110 77 37 5 0 0 0 0 0 0 0 0 0 0 0 0 0 0 0 0 0 0 0 0 0 0 0 0 0 0 0 0 0 0 0 0 0 0 0 0 0 0 0 0 0 0 8 5 7 37 17 24 16 17 -9999 
0 0 0 0 0 0 0 0 0 0 0 0 0 0 0 0 0 0 0 0 0 0 0 0 0 0 0 0 0 0 0 0 0 0 0 0 0 0 0 0 0 0 0 0 0 0 0 0 0 0 0 0 0 0 20 71 81 156 182 341 385 511 741 720 606 779 926 799 648 483 589 529 294 179 90 62 36 14 0 0 0 0 0 0 0 0 0 0 0 0 0 0 0 0 0 0 0 0 0 0 0 0 0 0 0 0 0 0 0 0 0 0 0 0 0 0 0 0 0 11 12 7 6 28 13 19 35 36 -9999 
0 0 0 0 0 0 0 0 0 0 0 0 0 0 0 0 0 0 0 0 0 0 0 0 0 0 0 0 0 0 0 0 0 0 0 0 0 0 0 0 0 0 0 0 0 0 0 0 0 0 0 0 0 0 0 43 152 179 206 327 410 664 809 918 655 656 1114 855 695 615 761 549 283 206 82 77 48 20 0 0 0 0 0 0 0 0 0 0 0 0 0 0 0 0 0 0 0 0 0 0 0 0 0 0 0 0 0 0 0 0 0 0 0 0 0 0 0 0 0 8 12 6 10 14 19 15 28 32 -9999 
0 0 0 0 0 0 0 0 0 0 0 0 0 0 0 0 0 0 0 0 0 0 0 0 0 0 0 0 0 0 0 0 0 0 0 0 0 0 0 0 0 0 0 0 0 0 0 0 0 0 0 0 0 0 47 78 126 219 246 470 559 783 924 1190 683 693 895 955 810 717 850 732 304 188 128 96 40 40 19 0 0 0 0 0 0 0 0 0 0 0 0 0 0 0 0 0 0 0 0 0 0 0 0 0 0 0 0 0 0 0 0 0 0 0 0 0 0 0 0 6 6 6 9 16 16 37 12 6 -9999 
0 0 0 0 0 0 0 0 0 0 0 0 0 0 0 0 0 0 0 0 0 0 0 0 0 0 0 0 0 0 0 0 0 0 0 0 0 0 0 0 0 0 0 0 0 0 0 0 0 0 0 0 0 0 68 69 201 239 265 479 577 760 1072 1321 851 837 1107 909 759 668 523 441 277 227 179 129 104 49 28 0 0 0 0 0 0 0 0 0 0 0 0 0 0 0 0 0 0 0 0 0 0 0 0 0 0 0 0 0 0 0 0 0 0 0 0 0 0 0 0 3 9 6 12 10 18 31 21 6 -9999 
0 0 0 0 0 0 0 0 0 0 0 0 0 0 0 0 0 0 0 0 0 0 0 0 0 0 0 0 0 0 0 0 0 0 0 0 0 0 0 0 0 0 0 0 0 0 0 0 0 0 0 0 0 0 34 40 102 134 210 337 445 740 935 1199 1012 1011 1074 901 774 481 436 359 317 291 206 144 112 48 31 0 0 0 0 0 0 0 0 0 0 0 0 0 0 0 0 0 0 0 0 0 0 0 0 0 0 0 0 0 0 0 0 0 0 0 0 0 0 0 0 -3 14 7 12 18 14 26 11 13 -9999 
0 0 0 0 0 0 0 0 0 0 0 0 0 0 0 0 0 0 0 0 0 0 0 0 0 0 0 0 0 0 0 0 0 0 0 0 0 0 0 0 0 0 0 0 0 0 0 0 0 0 0 0 0 0 56 102 181 194 248 387 479 697 754 827 875 882 743 645 745 523 371 404 292 202 169 94 67 47 28 0 0 0 0 0 0 0 0 0 0 0 0 0 0 0 0 0 0 0 0 0 0 0 0 0 0 0 0 0 0 0 0 0 0 0 0 0 0 0 8 5 4 10 9 15 17 28 29 13 -9999 
0 0 0 0 0 0 0 0 0 0 0 0 0 0 0 0 0 0 0 0 0 0 0 0 0 0 0 0 0 0 0 0 0 0 0 0 0 0 0 0 0 0 0 0 0 0 0 0 0 0 0 0 0 0 25 75 126 215 197 310 393 572 585 695 707 784 851 585 558 454 335 345 283 246 177 133 113 62 26 0 0 0 0 0 0 0 0 0 0 0 0 0 0 0 0 0 0 0 0 0 0 0 0 0 0 0 0 0 0 0 0 0 0 0 0 0 0 0 0 5 6 1 9 14 22 32 27 16 -9999 
0 0 0 0 0 0 0 0 0 0 0 0 0 0 0 0 0 0 0 0 0 0 0 0 0 0 0 0 0 0 0 0 0 0 0 0 0 0 0 0 0 0 0 0 0 0 0 0 0 0 0 0 0 0 0 50 165 100 208 251 346 463 516 551 500 579 586 550 417 421 356 201 241 249 167 141 118 47 18 0 0 0 0 0 0 0 0 0 0 0 0 0 0 0 0 0 0 0 0 0 0 0 0 0 0 0 0 0 0 0 7 0 0 0 0 0 0 0 0 0 4 7 12 16 17 29 25 22 -9999 
0 0 0 0 0 0 0 0 0 0 0 0 0 0 0 0 0 0 0 0 0 0 0 0 0 0 0 0 0 0 0 0 0 0 0 0 0 0 0 0 0 0 0 0 0 0 0 0 0 0 0 0 0 0 46 71 83 65 180 223 270 296 263 299 246 397 298 311 313 300 334 223 202 154 154 131 87 50 27 0 0 0 0 0 0 0 0 0 0 0 0 0 0 0 0 0 0 0 0 0 0 0 0 0 0 0 0 0 0 1 8 5 0 0 0 0 0 0 1 8 7 7 12 24 24 34 26 24 -9999 
0 0 0 0 0 0 0 0 0 0 0 0 0 0 0 0 0 0 0 0 0 0 0 0 0 0 0 0 0 0 0 0 0 0 0 0 0 0 0 0 0 0 0 0 0 0 0 0 0 0 0 0 0 0 0 0 83 126 108 142 159 237 176 226 173 287 317 334 244 315 283 183 156 108 106 65 46 27 0 0 0 0 0 0 0 0 0 0 0 0 0 0 0 0 0 0 0 0 0 0 0 0 0 0 0 0 0 0 0 7 0 0 0 0 0 0 0 3 5 8 7 13 14 18 26 39 30 9 -9999 
0 0 0 0 0 0 0 0 0 0 0 0 0 0 0 0 0 0 0 0 0 0 0 0 0 0 0 0 0 0 0 0 0 0 0 0 0 0 0 0 0 0 0 0 0 0 0 0 0 0 0 0 0 0 0 46 60 81 89 105 126 169 150 112 123 209 211 238 229 279 252 202 112 99 64 55 6 7 0 0 0 0 0 0 0 0 0 0 0 0 0 0 0 0 0 0 0 0 0 0 0 0 0 0 0 0 0 0 3 0 0 0 8 0 0 2 5 10 11 10 18 16 16 27 20 34 21 8 -9999 
0 0 0 0 0 0 0 0 0 0 0 0 0 0 0 0 0 0 0 0 0 0 0 0 0 0 0 0 0 0 0 0 0 0 0 0 0 0 0 0 0 0 0 0 0 0 0 0 0 0 0 0 0 0 0 0 0 0 62 9 52 74 53 80 53 135 110 18 42 178 191 152 114 110 77 52 8 0 0 0 0 0 0 0 0 0 0 0 0 0 0 0 0 0 0 0 0 0 0 0 0 0 0 0 0 0 0 0 4 0 1 1 5 5 1 1 3 6 13 10 19 22 21 20 28 34 11 1 -9999 
0 0 0 0 0 0 0 0 0 0 0 0 0 0 0 0 0 0 0 0 0 0 0 0 0 0 0 0 0 0 0 0 0 0 0 0 0 0 0 0 0 0 0 0 0 0 0 0 0 0 0 0 0 0 0 0 0 0 18 0 15 4 70 41 60 24 26 11 129 158 96 85 84 87 52 14 0 0 0 0 0 0 0 0 0 0 0 0 0 0 0 0 0 0 0 0 0 0 0 0 0 0 0 0 0 0 0 2 1 2 5 5 8 8 8 8 8 8 17 16 15 23 22 28 31 14 6 2 -9999 
0 0 0 0 0 0 0 0 0 0 0 0 0 0 0 0 0 0 0 0 0 0 0 0 0 0 0 0 0 0 0 0 0 0 0 0 0 0 0 0 0 0 0 0 0 0 0 0 0 0 0 0 0 0 0 0 0 0 0 0 0 0 16 24 11 7 3 8 75 87 97 84 87 63 28 15 0 0 0 0 0 0 0 0 0 0 0 0 0 0 0 0 0 0 0 0 0 0 0 0 0 0 0 0 0 0 0 5 10 5 3 8 7 7 10 9 15 13 15 17 22 28 29 38 32 16 7 2 -9999 
0 0 0 0 0 0 0 0 0 0 0 0 0 0 0 0 0 0 0 0 0 0 0 0 0 0 0 0 0 0 0 0 0 0 0 0 0 0 0 0 0 0 0 0 0 0 0 0 0 0 0 0 0 0 0 0 0 0 0 0 0 0 0 16 69 92 0 0 0 0 0 5 0 0 0 0 0 0 0 0 0 0 0 0 0 0 0 0 0 0 0 0 0 0 0 0 0 0 0 0 0 0 0 0 0 0 0 6 8 6 6 6 11 11 10 11 13 17 19 24 31 34 37 37 38 13 6 -9999 -9999 
0 0 0 0 0 0 0 0 0 0 0 0 0 0 0 0 0 0 0 0 0 0 0 0 0 0 0 0 0 0 0 0 0 0 0 0 0 0 0 0 0 0 0 0 0 0 0 0 0 0 0 0 0 0 0 0 0 0 0 0 0 0 0 0 5 0 0 0 0 0 0 0 0 0 0 0 0 0 0 0 0 0 0 0 0 0 0 0 0 0 0 0 0 0 0 0 0 0 0 0 0 0 0 0 8 3 4 5 9 7 10 9 11 10 12 13 19 22 19 27 31 37 39 42 21 13 8 -9999 -9999 
0 0 0 0 0 0 0 0 0 0 0 0 0 0 0 0 0 0 0 0 0 0 0 0 0 0 0 0 0 0 0 0 0 0 0 0 0 0 0 0 0 0 0 0 0 0 0 0 0 0 0 0 0 0 0 0 0 0 0 0 0 0 0 0 0 0 16 0 0 0 0 0 0 0 0 0 0 0 0 0 0 0 0 0 0 0 0 0 0 0 0 0 0 0 0 0 0 0 0 0 0 0 0 0 10 7 10 11 13 10 10 14 17 16 18 18 23 29 39 30 33 38 44 45 34 15 8 -9999 -9999 
0 0 0 0 0 0 0 0 0 0 0 0 0 0 0 0 0 0 0 0 0 0 0 0 0 0 0 0 0 0 0 0 0 0 0 0 0 0 0 0 0 0 0 0 0 0 0 0 0 0 0 0 0 0 0 0 0 0 0 0 0 0 0 0 0 0 0 0 0 0 0 0 0 0 0 0 0 0 0 0 0 0 0 0 0 0 0 0 0 0 0 0 0 0 0 0 0 0 0 0 0 0 0 0 7 16 14 13 13 18 17 18 20 20 20 25 24 33 35 32 34 48 56 35 42 26 8 -9999 -9999 
0 0 0 0 0 0 0 0 0 0 0 0 0 0 0 0 0 0 0 0 0 0 0 0 0 0 0 0 0 0 0 0 0 0 0 0 0 0 0 0 0 0 0 0 0 0 0 0 0 0 0 0 0 0 0 0 0 0 0 0 0 0 0 0 0 0 0 0 0 0 0 0 0 0 105 127 104 19 21 5 0 0 0 0 0 0 0 0 0 0 0 0 0 0 0 0 0 0 0 0 0 0 6 9 17 13 16 18 20 20 21 19 25 23 25 28 33 36 39 40 49 45 46 47 39 16 8 -9999 -9999 
0 0 0 0 0 0 0 0 0 0 0 0 0 0 0 0 0 0 0 0 0 0 0 0 0 0 0 0 0 0 0 0 0 0 0 0 0 0 0 0 0 0 0 0 0 0 0 0 0 0 0 0 0 0 0 0 0 0 0 0 0 0 0 0 0 0 0 0 0 0 0 0 0 0 158 162 0 0 0 0 0 0 0 0 0 0 0 0 0 0 0 0 0 0 0 0 0 0 0 0 0 0 13 11 17 20 20 22 21 24 25 27 30 31 34 35 42 46 54 43 62 56 51 46 64 21 9 -9999 -9999 
0 0 0 0 0 0 0 0 0 0 0 0 0 0 0 0 0 0 0 0 0 0 0 0 0 0 0 0 0 0 0 0 0 0 0 0 0 0 0 0 0 0 0 0 0 0 0 0 0 0 0 0 0 0 0 0 0 0 0 0 0 0 0 0 0 0 0 0 0 0 0 0 0 0 0 0 0 0 0 0 0 0 0 0 0 0 0 0 0 0 0 0 0 0 0 0 0 0 0 0 0 10 10 13 22 18 19 22 27 26 28 31 34 34 39 41 51 45 56 52 62 66 57 46 42 18 11 -9999 -9999 
0 0 0 0 0 0 0 0 0 0 0 0 0 0 0 0 0 0 0 0 0 0 0 0 0 0 0 0 0 0 0 0 0 0 0 0 0 0 0 0 0 0 0 0 0 0 0 0 0 0 0 0 0 0 0 0 0 0 0 0 0 0 0 0 0 0 0 0 0 0 0 0 0 0 0 0 0 0 0 0 0 0 0 0 0 0 0 0 0 0 0 0 0 0 0 0 0 0 0 13 16 11 15 19 23 31 32 30 32 38 41 42 45 46 52 48 55 57 58 58 63 73 59 57 62 23 14 -9999 -9999 
0 0 0 0 0 0 0 0 0 0 0 0 0 0 0 0 0 0 0 0 0 0 0 0 0 0 0 0 0 0 0 0 0 0 0 0 0 0 0 0 0 0 0 0 0 0 0 0 0 0 0 0 0 0 0 0 0 0 0 0 0 0 0 0 0 0 0 0 0 0 0 0 0 0 0 0 0 0 0 0 0 0 0 0 0 0 0 0 0 0 0 0 0 0 0 0 0 0 8 14 16 15 21 26 28 29 38 31 38 39 42 45 52 48 58 61 66 82 77 76 77 85 79 61 58 20 16 -9999 -9999 
0 0 0 0 0 0 0 0 0 0 0 0 0 0 0 0 0 0 0 0 0 0 0 0 0 0 0 0 0 0 0 0 0 0 0 0 0 0 0 0 0 0 0 0 0 0 0 0 0 0 0 0 0 0 0 0 0 0 0 0 0 0 0 0 0 0 0 0 0 0 0 0 0 0 0 0 0 0 0 0 0 0 0 0 0 0 0 0 0 0 0 0 0 0 0 0 0 7 10 14 17 20 24 29 31 32 41 39 40 44 50 49 61 57 66 67 70 83 89 79 82 84 83 82 56 24 20 -9999 -9999 
0 0 0 0 0 0 0 0 0 0 0 0 0 0 0 0 0 0 0 0 0 0 0 0 0 0 0 0 0 0 0 0 0 0 0 0 0 0 0 0 0 0 0 0 0 0 0 0 0 0 0 0 0 0 0 0 0 0 0 0 0 0 0 0 0 0 0 0 0 0 0 0 0 0 0 0 0 0 0 0 0 0 0 0 0 0 0 0 0 0 0 0 0 0 0 0 6 16 10 17 12 18 31 38 47 47 48 47 53 55 57 61 69 78 78 87 90 100 108 109 101 102 84 77 49 35 24 -9999 -9999 
0 0 0 0 0 0 0 0 0 0 0 0 0 0 0 0 0 0 0 0 0 0 0 0 0 0 0 0 0 0 0 0 0 0 0 0 0 0 0 0 0 0 0 0 0 0 0 0 0 0 0 0 0 0 0 0 0 0 0 0 0 0 0 0 0 0 0 0 0 0 0 0 0 0 0 0 0 0 0 0 0 0 0 0 0 0 0 0 0 0 0 0 0 0 0 9 13 12 18 22 29 21 34 40 48 53 54 53 59 61 63 70 78 83 89 97 95 111 116 106 110 116 105 74 88 25 23 -9999 -9999 
0 0 0 0 0 0 0 0 0 0 0 0 0 0 0 0 0 0 0 0 0 0 0 0 0 0 0 0 0 0 0 0 0 0 0 0 0 0 0 0 0 0 0 0 0 0 0 0 0 0 0 0 0 0 0 0 0 0 0 0 0 0 0 0 0 0 0 0 0 0 0 0 0 0 0 0 0 0 0 0 0 0 0 0 0 0 0 0 0 0 0 2 4 6 11 13 14 19 24 28 30 27 41 37 46 55 57 58 60 74 72 75 84 84 102 99 104 121 120 126 125 128 104 90 71 36 22 -9999 -9999 
0 0 0 0 0 0 0 0 0 0 0 0 0 0 0 0 0 0 0 0 0 0 0 0 0 0 0 0 0 0 0 0 0 0 0 0 0 0 0 0 0 0 0 0 0 0 0 0 0 0 0 0 0 0 0 0 0 0 0 0 0 0 0 0 0 0 0 0 0 0 0 0 0 0 0 0 0 0 0 0 0 0 0 0 0 0 0 0 0 0 0 9 6 13 14 15 19 21 29 36 37 52 54 47 63 70 72 76 79 86 97 90 107 106 116 119 120 138 146 160 159 137 114 106 91 38 33 -9999 -9999 
-9999 -9999 -9999 -9999 -9999 -9999 -9999 -9999 -9999 -9999 -9999 -9999 -9999 -9999 -9999 -9999 -9999 -9999 -9999 -9999 -9999 -9999 -9999 -9999 -9999 -9999 -9999 -9999 -9999 -9999 -9999 -9999 -9999 -9999 -9999 -9999 -9999 -9999 -9999 -9999 -9999 -9999 -9999 -9999 -9999 -9999 -9999 -9999 -9999 -9999 -9999 -9999 -9999 -9999 -9999 -9999 -9999 -9999 -9999 -9999 -9999 -9999 -9999 -9999 -9999 -9999 -9999 -9999 -9999 -9999 -9999 -9999 -9999 -9999 -9999 -9999 -9999 0 0 0 0 0 0 0 0 0 0 0 0 0 0 6 11 15 21 21 22 26 33 33 45 53 59 56 72 76 89 80 89 101 103 104 119 117 129 138 138 148 156 166 154 153 135 116 110 39 38 -9999 -9999 
